# .PCD v0.7 - Point Cloud Data file format
VERSION 0.7
FIELDS x y z rgb
SIZE 4 4 4 4
TYPE F F F U
COUNT 1 1 1 1
WIDTH 1135
HEIGHT 1
VIEWPOINT 0 0 0 1 0 0 0
POINTS 1135
DATA ascii
0.10757232 -0.056590173 0.5651418 65923
0.10794052 -0.056250695 0.56175154 65991
0.10847098 -0.056001294 0.5592609 131832
0.10912971 -0.055822108 0.55747145 131839
0.10980936 -0.055656798 0.55582058 131839
0.11055069 -0.055525459 0.55450892 131839
0.11130078 -0.055400837 0.55326438 197631
0.11210456 -0.055304915 0.55230647 197631
0.11290555 -0.055209324 0.55135185 197631
0.11375201 -0.055137433 0.55063391 197631
0.11460716 -0.055070974 0.54997021 197631
0.11547622 -0.055012275 0.549384 197631
0.11638279 -0.054972295 0.54898471 197631
0.11728803 -0.054932371 0.54858601 197631
0.11823139 -0.054910813 0.54837072 197631
0.11919097 -0.054897085 0.54823363 197631
0.12015994 -0.054887876 0.54814166 197631
0.12118126 -0.054902527 0.54828799 197631
0.1222031 -0.054917179 0.54843432 197631
0.12328408 -0.054957964 0.5488416 197631
0.12438411 -0.055006515 0.54932648 197631
0.1255518 -0.055083994 0.55010021 197631
0.12676015 -0.055177949 0.5510385 131839
0.12810998 -0.055331547 0.55257243 131839
0.12964308 -0.055561323 0.55486709 131839
0.10763111 -0.055600904 0.56545067 65940
0.1080575 -0.055297032 0.56236035 66002
0.10861883 -0.055067219 0.56002319 131839
0.10927798 -0.054890782 0.55822885 131839
0.10997873 -0.054738272 0.55667788 131839
0.11072079 -0.054608896 0.55536216 131839
0.11148768 -0.054493979 0.55419344 197631
0.11229248 -0.054399468 0.55323231 197631
0.11309762 -0.054306783 0.55228972 197631
0.11395612 -0.054241125 0.55162197 197631
0.11481257 -0.054175626 0.55095589 197631
0.1156963 -0.054124024 0.55043107 197631
0.11660443 -0.054084606 0.55003023 197631
0.11751125 -0.054045256 0.54963005 197631
0.11847025 -0.054030366 0.54947859 197631
0.11943171 -0.054016832 0.54934096 197631
0.12041833 -0.054014806 0.54932034 197631
0.12144191 -0.054029256 0.54946733 197631
0.12246826 -0.054044694 0.54962432 197631
0.12356912 -0.054092508 0.55011058 197631
0.12467195 -0.054140411 0.55059773 197631
0.12586975 -0.05422847 0.55149329 197631
0.12710024 -0.054329127 0.55251694 131839
0.12847903 -0.054491106 0.55416423 131839
0.13010423 -0.054754291 0.55684078 66047
0.1076538 -0.055114623 0.57098204 65945
0.10768995 -0.054610547 0.56575984 65958
0.10817475 -0.054341305 0.56297052 66013
0.10876706 -0.054130588 0.5607875 131839
0.10942665 -0.053956918 0.55898833 131839
0.11014862 -0.053816903 0.55753779 131839
0.11089142 -0.053689513 0.55621803 197631
0.1116752 -0.053584065 0.55512559 197631
0.11248104 -0.053490981 0.55416125 197631
0.11330116 -0.053406272 0.55328369 197631
0.11416097 -0.053341586 0.55261356 197631
0.11501871 -0.053277064 0.55194509 197631
0.11591722 -0.053232372 0.55148208 197631
0.11682692 -0.053193536 0.55107975 197631
0.11774626 -0.053159706 0.55072927 197631
0.11871009 -0.053146359 0.55059099 197631
0.11967342 -0.053133011 0.55045271 197631
0.12067783 -0.053137977 0.55050415 197631
0.12170368 -0.053152222 0.55065173 197631
0.12275181 -0.053175885 0.55089688 197631
0.12385549 -0.053223044 0.55138546 197631
0.12497787 -0.053277422 0.55194879 197631
0.12618934 -0.053368613 0.55289352 197631
0.12746635 -0.053485882 0.55410844 131839
0.12885359 -0.053647213 0.55577981 131839
0.13067853 -0.053986885 0.55929875 66047
0.10752871 -0.054021601 0.57031858 65909
0.1077617 -0.053625494 0.56613678 65973
0.10829223 -0.053383496 0.56358194 131816
0.10891571 -0.053191394 0.5615539 131839
0.10957572 -0.053020511 0.55974984 131839
0.11031903 -0.052892681 0.55840033 131839
0.11106258 -0.052767288 0.55707651 197631
0.11186336 -0.05267109 0.55606091 197631
0.11267021 -0.052579433 0.55509329 197631
0.11350545 -0.05250252 0.55428129 197631
0.11436655 -0.05243881 0.55360872 197631
0.11522637 -0.052375622 0.55294162 197631
0.11613899 -0.052337315 0.5525372 197631
0.11705027 -0.052299056 0.55213326 197631
0.11798517 -0.05227191 0.55184668 197631
0.11895089 -0.05225876 0.55170786 197631
0.11991612 -0.052245609 0.55156904 197631
0.12093845 -0.052257355 0.55169302 197631
0.12196659 -0.052271396 0.55184126 197631
0.12303669 -0.052303046 0.5521754 197631
0.12414319 -0.052349541 0.55266625 197631
0.12529546 -0.052414432 0.55335134 197631
0.12651052 -0.052504364 0.55430079 131839
0.12783456 -0.05263776 0.55570906 131839
0.12931268 -0.05283203 0.55776 131839
0.13143569 -0.053284742 0.5625394 66031
0.10753899 -0.052997686 0.57037312 65913
0.1078794 -0.052661508 0.56675512 65985
0.10840998 -0.052423604 0.56419474 131827
0.10906477 -0.052249637 0.56232244 131839
0.10974213 -0.052089583 0.56059992 131839
0.11048997 -0.051965602 0.55926561 131839
0.11124144 -0.051845558 0.55797368 197631
0.11205216 -0.051755037 0.55699944 197631
0.11286004 -0.051664818 0.55602849 197631
0.11371046 -0.051595494 0.55528241 197631
0.11457288 -0.051532779 0.55460745 197631
0.1154474 -0.051476546 0.55400229 197631
0.11636162 -0.051438827 0.55359632 197631
0.11727446 -0.051401149 0.55319083 197631
0.11822505 -0.051380508 0.55296868 197631
0.11919267 -0.051367551 0.55282927 197631
0.12017034 -0.051359106 0.55273837 197631
0.1212002 -0.051372927 0.55288708 197631
0.12223063 -0.051386755 0.55303591 197631
0.1233229 -0.05142615 0.55345988 197631
0.12443223 -0.051471967 0.55395299 197631
0.12561464 -0.051547043 0.55476099 197631
0.12683336 -0.05163572 0.55571532 131839
0.1282049 -0.05178472 0.55731893 131839
0.12977506 -0.052011017 0.55975437 131839
0.1075983 -0.051997267 0.57068771 65931
0.10799737 -0.051695425 0.56737489 65996
0.10854913 -0.051471654 0.56491894 131836
0.10921425 -0.051305298 0.56309313 131839
0.10991286 -0.051157597 0.56147206 131839
0.11066145 -0.051035646 0.56013358 131839
0.11142983 -0.050924946 0.5589186 197631
0.1122416 -0.050835878 0.55794108 197631
0.11305051 -0.050747119 0.5569669 197631
0.11391623 -0.050685197 0.55628729 197631
0.11477995 -0.050623469 0.55560982 197631
0.11566927 -0.050574012 0.555067 197631
0.11658508 -0.050536882 0.55465949 197631
0.11749954 -0.050499801 0.55425251 197631
0.11846592 -0.050485473 0.55409527 197631
0.11943544 -0.050472718 0.55395526 197631
0.12043092 -0.050471049 0.55393696 197631
0.12146309 -0.050484661 0.55408633 197631
0.12250027 -0.05050011 0.5542559 197631
0.12361044 -0.05054516 0.55475032 197631
0.12472263 -0.050590307 0.55524582 197631
0.12593547 -0.050675225 0.55617785 197631
0.12718649 -0.050774056 0.55726254 131839
0.1285774 -0.05092673 0.55893821 131839
0.13024075 -0.05118411 0.56176305 66047
0.10772763 -0.051521912 0.57689416 65966
0.10765769 -0.050995745 0.57100266 65948
0.10811561 -0.050727226 0.56799603 66007
0.10869857 -0.050521873 0.56569666 131839
0.10936414 -0.05035837 0.5638659 131839
0.11008412 -0.050222706 0.56234688 131839
0.11083345 -0.050102796 0.56100422 197631
0.11161887 -0.050001211 0.55986679 197631
0.11243166 -0.049913608 0.55888587 197631
0.11325559 -0.04983246 0.55797726 197631
0.11412274 -0.049771592 0.55729574 197631
0.11498778 -0.04971087 0.55661583 197631
0.11589202 -0.04966801 0.55613589 197631
0.11680942 -0.049631469 0.55572677 197631
0.11773583 -0.049599349 0.55536711 197631
0.11870775 -0.04958678 0.55522639 197631
0.1196792 -0.04957423 0.55508584 197631
0.12069263 -0.049579132 0.55514073 197631
0.12172712 -0.049592528 0.55529076 197631
0.12278629 -0.049615685 0.55555004 197631
0.12389933 -0.049660057 0.55604684 197631
0.12503608 -0.049713138 0.55664122 197631
0.12625794 -0.049798951 0.55760205 197631
0.127556 -0.049913216 0.55888152 131839
0.12897882 -0.05007413 0.56068325 131839
0.13090669 -0.05042709 0.5646354 66047
0.10760117 -0.050421804 0.57621694 65930
0.10771713 -0.04999312 0.57131797 65966
0.10823409 -0.049756903 0.56861848 66019
0.10884844 -0.049569476 0.56647658 131839
0.10951442 -0.049408831 0.56464076 131839
0.1102559 -0.049284898 0.56322443 131839
0.11100599 -0.049167037 0.56187755 197631
0.11180853 -0.049074333 0.56081814 197631
0.11262239 -0.048988212 0.55983394 197631
0.11346152 -0.048914526 0.55899185 197631
0.11433 -0.048854668 0.55830783 197631
0.11519635 -0.048794959 0.55762547 197631
0.11611562 -0.048758507 0.5572089 197631
0.11703461 -0.048722565 0.55679816 197631
0.11797673 -0.048696779 0.55650347 197631
0.11895058 -0.048684414 0.55636215 197631
0.11992396 -0.048672069 0.55622107 197631
0.12095548 -0.048683327 0.55634975 197631
0.1219923 -0.048696514 0.55650043 197631
0.12307367 -0.048727129 0.55685031 197631
0.12418959 -0.048770811 0.5573495 197631
0.1253565 -0.048833653 0.55806768 197631
0.12658206 -0.048918165 0.55903345 131839
0.12792766 -0.049047362 0.56050992 131839
0.12944242 -0.049238883 0.5626986 131839
0.10750505 -0.049338065 0.57570219 65907
0.10781722 -0.049007829 0.57184881 65979
0.10835282 -0.048784442 0.56924224 131822
0.10899872 -0.048614454 0.56725872 131839
0.10967374 -0.048460487 0.56546217 131839
0.11042821 -0.048344146 0.56410462 131839
0.11118108 -0.048229236 0.56276381 197631
0.11199886 -0.048144303 0.56177276 197631
0.11281374 -0.048059668 0.56078517 197631
0.11366821 -0.047993246 0.56001014 197631
0.11453801 -0.047934409 0.55932361 197631
0.11541811 -0.047880877 0.55869895 197631
0.11634006 -0.047845483 0.55828595 197631
0.11726068 -0.047810148 0.55787367 197631
0.11821862 -0.047790509 0.55764449 197631
0.11919441 -0.047778349 0.55750263 197631
0.1201809 -0.047770653 0.5574128 197631
0.12121948 -0.047783613 0.55756402 197631
0.12225863 -0.047796585 0.55771542 197631
0.12336239 -0.047834396 0.55815661 197631
0.12448118 -0.047877379 0.55865812 197631
0.12567857 -0.047949657 0.55950153 197631
0.12690784 -0.04803285 0.56047225 131839
0.12830146 -0.048176434 0.56214768 131839
0.1299094 -0.048397619 0.56472856 131839
0.1075649 -0.048326258 0.57602268 65921
0.10793617 -0.048029017 0.57247972 65990
0.1084782 -0.047812663 0.56990093 131832
0.10914941 -0.047656786 0.56804293 131839
0.10984582 -0.047514707 0.56634945 131839
0.11060107 -0.04740046 0.56498766 131839
0.11137099 -0.047294531 0.56372505 197631
0.11218981 -0.047211099 0.56273061 197631
0.11300576 -0.047127966 0.56173968 197631
0.11387565 -0.047068603 0.56103212 197631
0.11474678 -0.047010794 0.56034309 197631
0.11564182 -0.04696371 0.55978185 197631
0.11656541 -0.046928931 0.5593673 197631
0.11748763 -0.046894204 0.5589534 197631
0.11846151 -0.046880513 0.55879021 197631
0.11943924 -0.046868563 0.55864775 197631
0.12044372 -0.046867222 0.55863178 197631
0.12148465 -0.04687997 0.55878371 197631
0.12253283 -0.04689528 0.55896622 197631
0.12365247 -0.046937469 0.5594691 197631
0.12477417 -0.046979748 0.559973 197631
0.12600233 -0.047061112 0.56094283 197631
0.12727423 -0.047157384 0.56209034 131839
0.12867747 -0.047300417 0.56379521 131839
0.13037972 -0.04755025 0.56677312 66047
0.1076248 -0.047313318 0.57634348 65939
0.10805539 -0.04704804 0.57311201 66002
0.10862886 -0.046849415 0.57069248 131839
0.10930051 -0.046696462 0.5688293 131839
0.11001848 -0.046565957 0.56723958 131839
0.11077448 -0.046453815 0.5658735 131839
0.11156155 -0.04635663 0.56468964 197631
0.11238144 -0.046274707 0.56369174 197631
0.11320923 -0.046197489 0.56275111 197631
0.11408386 -0.046140585 0.56205791 197631
0.11495632 -0.046083808 0.56136632 197631
0.11586641 -0.046042982 0.56086898 197631
0.11679161 -0.046008818 0.56045282 197631
0.11772519 -0.045978509 0.56008363 197631
0.1187054 -0.04596677 0.55994064 197631
0.11968508 -0.045955028 0.55979759 197631
0.12070768 -0.04595983 0.55985606 197631
0.12175096 -0.045972355 0.56000865 197631
0.12282138 -0.045994837 0.56028253 197631
0.12394393 -0.046036318 0.5607878 197631
0.12509526 -0.046087727 0.56141406 197631
0.12632772 -0.046167966 0.56239146 197631
0.12764719 -0.046278466 0.56373751 131839
0.12910628 -0.046437439 0.56567401 131839
0.13113922 -0.046798702 0.57007474 66047
0.10768479 -0.04629926 0.57666475 65956
0.10817487 -0.046064895 0.57374573 66013
0.10877995 -0.045883488 0.57148623 131839
0.10945205 -0.045733482 0.56961793 131839
0.11019165 -0.045614216 0.56813246 131839
0.11094843 -0.045504194 0.56676209 197631
0.11175277 -0.045415509 0.5656575 197631
0.11257371 -0.045335118 0.5646562 197631
0.11341684 -0.045265019 0.56378311 197631
0.11429281 -0.045209154 0.56308734 197631
0.11516661 -0.045153428 0.56239325 197631
0.11609185 -0.045118667 0.56196028 197631
0.11701869 -0.045085125 0.56154251 197631
0.11796813 -0.045060791 0.56123942 197631
0.11895029 -0.045049258 0.56109577 197631
0.11993194 -0.045037732 0.56095225 197631
0.12097281 -0.045048453 0.56108576 197631
0.12201846 -0.045060758 0.561239 197631
0.12311128 -0.045090139 0.56160498 197631
0.12423676 -0.045130905 0.56211269 197631
0.12541859 -0.045191314 0.56286514 197631
0.12665482 -0.045270197 0.5638476 131839
0.12802233 -0.045394372 0.56539422 131839
0.12957451 -0.045581546 0.56772554 131839
0.10829461 -0.045079574 0.57438082 66024
0.10893148 -0.044914875 0.57228231 131839
0.10960414 -0.04476789 0.57040948 131839
0.11036537 -0.044659477 0.56902814 131839
0.11112292 -0.044551589 0.56765348 197631
0.11194464 -0.04447116 0.56662869 197631
0.11276665 -0.044392303 0.56562394 197631
0.11362523 -0.044329125 0.56481898 197631
0.11450255 -0.044274319 0.56412065 197631
0.11538832 -0.044223715 0.56347591 197631
0.11631818 -0.04419075 0.56305587 197631
0.11724667 -0.044157837 0.56263649 197631
0.11821207 -0.04413927 0.56239992 197631
0.11919619 -0.044127952 0.56225574 197631
0.12019166 -0.044120993 0.56216705 197631
0.1212391 -0.04413306 0.56232083 197631
0.12228712 -0.044145145 0.56247479 197631
0.12340257 -0.044181164 0.56293374 197631
0.12453098 -0.044221204 0.5634439 197631
0.12574361 -0.044290259 0.56432378 197631
0.12698919 -0.044369716 0.56533617 131839
0.12839971 -0.044505078 0.56706089 131839
0.13004613 -0.04471942 0.56979191 66047
0.10841461 -0.044092067 0.57501727 131827
0.10908341 -0.043943554 0.57308048 131839
0.10977763 -0.043807976 0.57131237 131839
0.11053964 -0.043701719 0.56992668 131839
0.11131115 -0.04360114 0.56861496 197631
0.11213716 -0.043523554 0.56760317 197631
0.11296025 -0.04344625 0.56659502 197631
0.11383437 -0.043389782 0.5658586 197631
0.11471304 -0.043336038 0.56515771 197631
0.11561389 -0.043291546 0.56457746 197631
0.11654541 -0.043259215 0.56415582 197631
0.11747552 -0.043226924 0.56373471 197631
0.11845702 -0.043213934 0.56356531 197631
0.11944311 -0.043202829 0.56342047 197631
0.12045675 -0.043201786 0.56340688 197631
0.12150656 -0.043213632 0.56356138 197631
0.12256593 -0.043228645 0.56375718 197631
0.12369525 -0.043267883 0.56426889 197631
0.12483087 -0.043308672 0.5648008 197631
0.12607032 -0.043384522 0.56579 197631
0.12736349 -0.043477494 0.56700248 131839
0.12877931 -0.043610521 0.56873733 131839
0.130602 -0.043878146 0.57222748 66047
0.10923576 -0.042969521 0.57388091 131839
0.10995167 -0.042845018 0.57221812 131839
0.11071447 -0.042740934 0.57082802 131839
0.11150326 -0.04264871 0.56959635 197631
0.11233035 -0.042572692 0.56858104 197631
0.11316208 -0.042499784 0.56760734 197631
0.1140443 -0.042446982 0.56690216 197631
0.11492433 -0.042394307 0.56619865 197631
0.11584033 -0.042355716 0.56568325 197631
0.1167735 -0.042324021 0.56525993 197631
0.11771439 -0.042295646 0.56488097 197631
0.11870298 -0.042284753 0.56473547 197631
0.11969106 -0.042273864 0.56459004 197631
0.12072301 -0.042278521 0.56465226 197631
0.12177522 -0.04229014 0.56480742 197631
0.12285704 -0.042311762 0.5650962 197631
0.1239893 -0.042350255 0.56561029 197631
0.12515548 -0.042399611 0.56626946 197631
0.12639873 -0.042474065 0.56726384 131839
0.12774 -0.042579997 0.56867862 131839
0.12923603 -0.04273542 0.57075441 131839
0.11012629 -0.041879009 0.57312685 131839
0.11088984 -0.041777104 0.57173222 197631
0.11169603 -0.041692987 0.57058108 197631
0.11252421 -0.041618545 0.56956232 197631
0.11337139 -0.041552413 0.56865728 197631
0.114255 -0.041500691 0.56794947 197631
0.11513638 -0.041449096 0.56724334 197631
0.11606768 -0.04141622 0.56679344 197631
0.11700251 -0.041385166 0.56636846 197631
0.11795939 -0.041362382 0.56605667 197631
0.11894998 -0.04135171 0.56591058 197631
0.11994005 -0.041341037 0.56576455 197631
0.12099043 -0.041351158 0.56590307 197631
0.12204506 -0.04136255 0.56605893 197631
0.12314953 -0.041390505 0.56644154 197631
0.12428475 -0.041428249 0.56695807 197631
0.12548177 -0.041485809 0.5677458 197631
0.12672883 -0.041558851 0.56874537 131839
0.12811871 -0.041677173 0.57036465 131839
0.12970896 -0.041858271 0.57284302 131839
0.11188945 -0.040733948 0.57156914 197631
0.11271874 -0.040661097 0.57054693 197631
0.11358151 -0.040601533 0.56971115 197631
0.11446647 -0.040550899 0.56900066 197631
0.115358 -0.040503476 0.56833524 197631
0.1162959 -0.040473025 0.56790793 197631
0.11723241 -0.040442623 0.56748134 197631
0.1182054 -0.040425222 0.5672372 197631
0.11919799 -0.040414769 0.56709051 197631
0.12020257 -0.040408526 0.56700289 197631
0.12125904 -0.040419679 0.56715941 197631
0.12231608 -0.04043084 0.567316 197631
0.12344343 -0.040464859 0.56779337 197631
0.12458161 -0.04050184 0.56831229 197631
0.12580979 -0.040567238 0.5692299 197631
0.12707648 -0.040643893 0.57030553 131839
0.1284997 -0.040768985 0.57206076 131839
0.11291394 -0.039700337 0.57153499 197631
0.1137924 -0.039647125 0.57076895 197631
0.11467873 -0.039597586 0.57005578 197631
0.11558545 -0.039555911 0.5694558 197631
0.11652503 -0.039526112 0.56902683 197631
0.11746321 -0.039496362 0.56859857 197631
0.11845245 -0.039484151 0.56842273 197631
0.11944705 -0.039473917 0.56827545 197631
0.12046997 -0.039473142 0.56826425 197631
0.12152886 -0.039484058 0.56842142 197631
0.12259962 -0.039498623 0.56863111 197631
0.12373873 -0.039534781 0.56915164 197631
0.12488917 -0.039573934 0.56971526 197631
0.12613951 -0.039643846 0.57072175 197631
0.11581381 -0.038604602 0.57058084 197631
0.11675508 -0.038575467 0.5701502 197631
0.11770341 -0.038549151 0.56976128 197631
0.11870053 -0.038539134 0.56961322 197631
0.11969715 -0.038529124 0.56946528 197631
0.12073857 -0.038533583 0.5695312 197631
0.12179989 -0.038544267 0.5696891 197631
0.12289333 -0.03856485 0.56999332 197631
0.12403543 -0.03860024 0.57051635 197631
0.20768467 -0.27669987 0.70837045 16713222
0.20896274 -0.2766999 0.70837051 16713222
0.2102408 -0.2766999 0.70837051 16713222
0.21151887 -0.27669993 0.70837057 16713222
0.21279694 -0.27669993 0.70837057 16713222
0.21407501 -0.27669993 0.70837063 16713222
0.21535307 -0.27669993 0.70837063 16713222
0.21663114 -0.27669996 0.70837069 16713222
0.21790923 -0.27669999 0.70837075 16713222
0.21918729 -0.27669999 0.70837075 16713222
0.22046536 -0.27670002 0.7083708 16713222
0.22174342 -0.27670002 0.7083708 16713222
0.22302151 -0.27670002 0.70837086 16713222
0.22429956 -0.27670002 0.70837086 16713222
0.22557765 -0.27670005 0.70837092 16713222
0.22685573 -0.27670008 0.70837098 16713222
0.22813378 -0.27670008 0.70837098 16713222
0.22941187 -0.27670011 0.70837104 16713222
0.23068993 -0.27670011 0.70837104 16713222
0.231968 -0.27670014 0.7083711 16713222
0.20749323 -0.27516794 0.70771754 8454658
0.20854995 -0.27487776 0.70697117 16713222
0.2098255 -0.27487779 0.70697123 16713222
0.21110106 -0.27487782 0.70697129 16713222
0.21237656 -0.27487779 0.70697123 16713222
0.21365212 -0.27487782 0.70697129 16713222
0.21492766 -0.27487782 0.70697129 16713222
0.21620321 -0.27487782 0.70697135 16713222
0.21747877 -0.27487785 0.70697141 16713222
0.21875429 -0.27487785 0.70697141 16713222
0.22002985 -0.27487788 0.70697147 16713222
0.22130539 -0.27487788 0.70697147 16713222
0.22258094 -0.27487791 0.70697153 16713222
0.22385648 -0.27487791 0.70697153 16713222
0.22513203 -0.27487791 0.70697159 16713222
0.22640759 -0.27487794 0.70697165 16713222
0.22768313 -0.27487794 0.70697165 16713222
0.22895868 -0.27487797 0.7069717 16713222
0.23023422 -0.27487797 0.7069717 16713222
0.23150977 -0.274878 0.70697176 16713222
0.20749323 -0.27558699 0.71209967 8454658
0.20749323 -0.27389106 0.70771754 8454658
0.20813878 -0.2730628 0.70557731 16713222
0.20941181 -0.27306283 0.70557737 16713222
0.21068485 -0.27306283 0.70557743 16713222
0.21195787 -0.27306283 0.70557743 16713222
0.21323091 -0.27306286 0.70557749 16713222
0.21450393 -0.27306286 0.70557749 16713222
0.21577697 -0.27306288 0.70557755 16713222
0.21705 -0.27306291 0.70557761 16713222
0.21832302 -0.27306291 0.70557761 16713222
0.21959606 -0.27306294 0.70557767 16713222
0.22086908 -0.27306294 0.70557767 16713222
0.22214213 -0.27306294 0.70557773 16713222
0.22341515 -0.27306294 0.70557773 16713222
0.22468819 -0.27306297 0.70557779 16713222
0.22596122 -0.273063 0.70557785 16713222
0.22723424 -0.273063 0.70557785 16713222
0.22850728 -0.27306303 0.70557791 16713222
0.2297803 -0.27306303 0.70557791 16713222
0.23105335 -0.27306303 0.70557797 16713222
0.23232637 -0.27306303 0.70557797 16713222
0.20749323 -0.27430218 0.71209967 8454658
0.20749323 -0.27261418 0.70771754 8454658
0.20772924 -0.27125499 0.704189 16713222
0.20899977 -0.27125502 0.70418906 16713222
0.2102703 -0.27125505 0.70418912 16713222
0.21154082 -0.27125505 0.70418912 16713222
0.21281135 -0.27125508 0.70418918 16713222
0.21408187 -0.27125508 0.70418918 16713222
0.2153524 -0.27125508 0.70418924 16713222
0.21662292 -0.27125508 0.70418924 16713222
0.21789342 -0.27125508 0.70418924 16713222
0.21916397 -0.27125511 0.7041893 16713222
0.22043447 -0.27125511 0.7041893 16713222
0.22170502 -0.27125514 0.70418936 16713222
0.22297552 -0.27125514 0.70418936 16713222
0.22424607 -0.27125517 0.70418942 16713222
0.2255166 -0.27125517 0.70418948 16713222
0.22678712 -0.27125517 0.70418948 16713222
0.22805765 -0.2712552 0.70418954 16713222
0.22932817 -0.2712552 0.70418954 16713222
0.2305987 -0.27125522 0.7041896 16713222
0.23186922 -0.27125522 0.7041896 16713222
0.20749322 -0.27301738 0.71209961 8454658
0.20749323 -0.2713373 0.70771754 8454658
0.20749332 -0.26967788 0.70338929 8454658
0.20858933 -0.2694543 0.70280617 16713222
0.20985737 -0.26945433 0.70280623 16713222
0.21112539 -0.26945433 0.70280623 16713222
0.21239343 -0.26945436 0.70280629 16713222
0.21366145 -0.26945436 0.70280629 16713222
0.21492949 -0.26945436 0.70280635 16713222
0.21619751 -0.26945436 0.70280635 16713222
0.21746555 -0.26945439 0.70280641 16713222
0.21873356 -0.26945439 0.70280641 16713222
0.22000159 -0.26945439 0.70280641 16713222
0.22126962 -0.26945442 0.70280647 16713222
0.22253765 -0.26945442 0.70280647 16713222
0.2238057 -0.26945445 0.70280653 16713222
0.22507372 -0.26945445 0.70280659 16713222
0.22634175 -0.26945445 0.70280659 16713222
0.22760978 -0.26945448 0.70280665 16713222
0.22887781 -0.26945448 0.70280665 16713222
0.23014586 -0.26945451 0.70280671 16713222
0.23141387 -0.26945451 0.70280671 16713222
0.20749319 -0.27173254 0.71209949 8454658
0.20749323 -0.27006042 0.70771754 8454658
0.20749332 -0.26840881 0.70338929 8454658
0.20818053 -0.26766068 0.70142877 16713222
0.20944607 -0.26766071 0.70142883 16713222
0.21071161 -0.26766071 0.70142883 16713222
0.21197717 -0.26766071 0.70142889 16713222
0.21324269 -0.26766071 0.70142889 16713222
0.21450824 -0.26766071 0.70142889 16713222
0.21577378 -0.26766071 0.70142889 16713222
0.21703933 -0.26766074 0.70142895 16713222
0.21830486 -0.26766074 0.70142895 16713222
0.21957041 -0.26766077 0.70142901 16713222
0.22083595 -0.26766077 0.70142901 16713222
0.22210148 -0.26766077 0.70142901 16713222
0.22336704 -0.2676608 0.70142907 16713222
0.22463259 -0.26766083 0.70142913 16713222
0.22589813 -0.26766083 0.70142913 16713222
0.22716369 -0.26766083 0.70142919 16713222
0.22842923 -0.26766083 0.70142919 16713222
0.22969478 -0.26766086 0.70142925 16713222
0.23096031 -0.26766086 0.70142925 16713222
0.23222587 -0.26766089 0.70142931 16713222
0.20749314 -0.27213275 0.7165361 8454658
0.20749316 -0.27044773 0.71209943 8454658
0.20749322 -0.26878351 0.70771748 8454658
0.20749331 -0.2671397 0.70338923 8454658
0.2077733 -0.26587403 0.70005667 16713222
0.20903637 -0.26587406 0.70005673 16713222
0.21029943 -0.26587406 0.70005673 16713222
0.21156251 -0.26587409 0.70005679 16713222
0.21282557 -0.26587409 0.70005679 16713222
0.21408865 -0.26587409 0.70005685 16713222
0.2153517 -0.26587409 0.70005685 16713222
0.21661478 -0.26587412 0.70005691 16713222
0.21787785 -0.26587412 0.70005691 16713222
0.2191409 -0.26587412 0.70005691 16713222
0.22040397 -0.26587412 0.70005691 16713222
0.22166704 -0.26587415 0.70005697 16713222
0.2229301 -0.26587415 0.70005697 16713222
0.22419319 -0.26587418 0.70005703 16713222
0.22545624 -0.26587418 0.70005703 16713222
0.22671932 -0.26587418 0.70005709 16713222
0.22798239 -0.26587418 0.70005709 16713222
0.22924547 -0.26587421 0.70005715 16713222
0.23050852 -0.26587421 0.70005715 16713222
0.2317716 -0.26587424 0.70005721 16713222
0.20749314 -0.27083996 0.7165361 8454658
0.20749316 -0.26916295 0.71209943 8454658
0.20749322 -0.26750663 0.70771748 8454658
0.20749331 -0.26587063 0.70338923 8454658
0.20749338 -0.26425448 0.69911355 8454658
0.20862827 -0.26409438 0.69869 16713222
0.20988886 -0.26409438 0.69869 16713222
0.21114947 -0.26409441 0.69869006 16713222
0.21241006 -0.26409441 0.69869006 16713222
0.21367067 -0.26409444 0.69869012 16713222
0.21493126 -0.26409444 0.69869012 16713222
0.21619189 -0.26409447 0.69869018 16713222
0.21745248 -0.26409447 0.69869018 16713222
0.21871309 -0.26409447 0.69869024 16713222
0.21997368 -0.26409447 0.69869024 16713222
0.22123429 -0.2640945 0.6986903 16713222
0.22249489 -0.2640945 0.6986903 16713222
0.22375551 -0.26409453 0.69869035 16713222
0.2250161 -0.26409453 0.69869035 16713222
0.22627671 -0.26409456 0.69869041 16713222
0.2275373 -0.26409456 0.69869041 16713222
0.22879793 -0.26409456 0.69869047 16713222
0.23005852 -0.26409456 0.69869047 16713222
0.23131913 -0.26409459 0.69869053 16713222
0.20749313 -0.26954713 0.71653605 8454658
0.20749316 -0.26787817 0.71209943 8454658
0.20749322 -0.26622975 0.70771748 8454658
0.20749331 -0.26460156 0.70338923 8454658
0.20749338 -0.26299313 0.69911355 8454658
0.20822176 -0.26232168 0.69732863 16713222
0.2094799 -0.26232168 0.69732863 16713222
0.21073805 -0.26232171 0.69732869 16713222
0.2119962 -0.26232171 0.69732869 16713222
0.21325435 -0.26232171 0.69732875 16713222
0.21451248 -0.26232171 0.69732875 16713222
0.21577065 -0.26232174 0.69732881 16713222
0.21702878 -0.26232174 0.69732881 16713222
0.21828693 -0.26232177 0.69732887 16713222
0.21954507 -0.26232177 0.69732887 16713222
0.22080323 -0.2623218 0.69732893 16713222
0.22206137 -0.2623218 0.69732893 16713222
0.22331953 -0.2623218 0.69732898 16713222
0.22457768 -0.26232183 0.69732904 16713222
0.22583582 -0.26232183 0.69732904 16713222
0.22709396 -0.26232183 0.69732904 16713222
0.22835211 -0.26232186 0.6973291 16713222
0.22961025 -0.26232186 0.6973291 16713222
0.23086841 -0.26232189 0.69732916 16713222
0.23212655 -0.26232189 0.69732916 16713222
0.20749313 -0.26825434 0.71653605 8454658
0.20749316 -0.26659337 0.71209943 8454658
0.20749322 -0.26495287 0.70771748 8454658
0.20749331 -0.26333249 0.70338923 8454658
0.20749338 -0.26173177 0.69911355 8454658
0.20781682 -0.26055583 0.6959725 16713222
0.20907252 -0.26055583 0.6959725 16713222
0.21032822 -0.26055586 0.69597256 16713222
0.21158391 -0.26055586 0.69597256 16713222
0.21283962 -0.26055589 0.69597262 16713222
0.21409531 -0.26055589 0.69597262 16713222
0.21535103 -0.26055589 0.69597268 16713222
0.21660672 -0.26055589 0.69597268 16713222
0.21786243 -0.26055592 0.69597274 16713222
0.21911812 -0.26055592 0.69597274 16713222
0.22037382 -0.26055595 0.6959728 16713222
0.22162952 -0.26055595 0.6959728 16713222
0.22288522 -0.26055598 0.69597286 16713222
0.22414094 -0.26055598 0.69597292 16713222
0.22539663 -0.26055598 0.69597292 16713222
0.22665234 -0.26055601 0.69597298 16713222
0.22790803 -0.26055601 0.69597298 16713222
0.22916374 -0.26055604 0.69597304 16713222
0.23041944 -0.26055604 0.69597304 16713222
0.23167513 -0.26055604 0.69597304 16713222
0.20749305 -0.26863521 0.72102821 8454658
0.20749313 -0.26696154 0.71653605 8454658
0.20749316 -0.26530859 0.71209943 8454658
0.20749322 -0.26367599 0.70771748 8454658
0.20749331 -0.26206341 0.70338923 8454658
0.20749338 -0.26047042 0.69911355 8454658
0.20749345 -0.25889668 0.69488955 8454658
0.20866673 -0.25879687 0.69462168 16713222
0.20991999 -0.2587969 0.69462174 16713222
0.21117325 -0.2587969 0.69462174 16713222
0.21242651 -0.2587969 0.6946218 16713222
0.21367978 -0.2587969 0.6946218 16713222
0.21493305 -0.25879693 0.69462186 16713222
0.2161863 -0.25879693 0.69462186 16713222
0.21743958 -0.25879696 0.69462192 16713222
0.21869282 -0.25879696 0.69462192 16713222
0.2199461 -0.25879699 0.69462198 16713222
0.22119935 -0.25879699 0.69462198 16713222
0.22245263 -0.25879699 0.69462204 16713222
0.2237059 -0.25879702 0.6946221 16713222
0.22495915 -0.25879702 0.6946221 16713222
0.22621243 -0.25879705 0.69462216 16713222
0.22746569 -0.25879705 0.69462216 16713222
0.22871895 -0.25879708 0.69462222 16713222
0.22997221 -0.25879708 0.69462222 16713222
0.23122549 -0.25879708 0.69462228 16713222
0.23247874 -0.25879708 0.69462228 16713222
0.20749305 -0.26733431 0.72102821 8454658
0.20749313 -0.26566875 0.71653605 8454658
0.20749316 -0.26402381 0.71209943 8454658
0.20749322 -0.26239911 0.70771748 8454658
0.20749331 -0.26079434 0.70338923 8454658
0.20749338 -0.25920907 0.69911355 8454658
0.20749345 -0.25764292 0.69488955 8454658
0.20867938 -0.25755924 0.69466382 16712708
0.20993271 -0.25755924 0.69466382 16712708
0.21118604 -0.25755924 0.69466382 16712708
0.21243937 -0.25755924 0.69466382 16712708
0.21369269 -0.25755924 0.69466382 16712708
0.21494605 -0.25755927 0.69466388 16712708
0.21619938 -0.25755927 0.69466388 16712708
0.2174527 -0.25755927 0.69466388 16712708
0.21870604 -0.25755927 0.69466388 16712708
0.21995936 -0.25755927 0.69466388 16712708
0.22121271 -0.25755927 0.69466394 16712708
0.22246605 -0.25755927 0.69466394 16712708
0.22371937 -0.25755927 0.69466394 16712708
0.22497271 -0.25755927 0.69466394 16712708
0.22622603 -0.25755927 0.69466394 16712708
0.22747938 -0.2575593 0.694664 16712708
0.22873272 -0.2575593 0.694664 16712708
0.22998604 -0.2575593 0.694664 16712708
0.23123938 -0.2575593 0.694664 16712708
0.2324927 -0.2575593 0.694664 11701063
0.20749305 -0.26603341 0.72102821 8454658
0.20749313 -0.26437595 0.71653605 8454658
0.20749316 -0.26273903 0.71209943 8454658
0.20749322 -0.26112223 0.70771748 8454658
0.20749331 -0.25952527 0.70338923 8454658
0.20749338 -0.25794768 0.69911355 8454658
0.20775522 -0.25671265 0.69576621 16712708
0.20901054 -0.25671265 0.69576621 16712708
0.21026586 -0.25671265 0.69576621 16712708
0.21152118 -0.25671265 0.69576621 16712708
0.2127765 -0.25671265 0.69576621 16712708
0.21403182 -0.25671265 0.69576621 16712708
0.21528715 -0.25671268 0.69576627 16712708
0.21654247 -0.25671268 0.69576627 16712708
0.21779779 -0.25671268 0.69576627 16712708
0.2190531 -0.25671268 0.69576627 16712708
0.22030842 -0.25671268 0.69576627 16712708
0.22156377 -0.2567127 0.69576633 16712708
0.22281909 -0.2567127 0.69576633 16712708
0.22407441 -0.2567127 0.69576633 16712708
0.22532973 -0.2567127 0.69576633 16712708
0.22658505 -0.2567127 0.69576633 16712708
0.22784036 -0.2567127 0.69576633 16712708
0.22909568 -0.2567127 0.69576633 16712708
0.230351 -0.2567127 0.69576633 16712708
0.23160632 -0.2567127 0.69576633 16712708
0.20749304 -0.26473251 0.72102815 8454658
0.2074931 -0.26308316 0.71653599 8454658
0.20749314 -0.26145422 0.71209937 8454658
0.2074932 -0.25984535 0.70771742 8454658
0.20749329 -0.25825617 0.70338917 8454658
0.20749336 -0.25668633 0.69911349 8454658
0.20808543 -0.25586334 0.69687206 16712708
0.20934275 -0.25586334 0.69687206 16712708
0.21060006 -0.25586334 0.69687206 16712708
0.21185736 -0.25586334 0.69687206 16712708
0.21311468 -0.25586334 0.69687206 16712708
0.21437199 -0.25586334 0.69687206 16712708
0.21562932 -0.25586337 0.69687212 16712708
0.21688664 -0.25586337 0.69687212 16712708
0.21814395 -0.25586337 0.69687212 16712708
0.21940127 -0.25586337 0.69687212 16712708
0.22065859 -0.25586337 0.69687212 16712708
0.22191592 -0.2558634 0.69687217 16712708
0.22317323 -0.2558634 0.69687217 16712708
0.22443055 -0.2558634 0.69687217 16712708
0.22568786 -0.2558634 0.69687217 16712708
0.22694518 -0.2558634 0.69687217 16712708
0.22820251 -0.25586343 0.69687223 16712708
0.22945982 -0.25586343 0.69687223 16712708
0.23071714 -0.25586343 0.69687223 16712451
0.23197445 -0.25586343 0.69687223 16712451
0.20749298 -0.26509354 0.725577 8454658
0.20749304 -0.26343161 0.72102815 8454658
0.20749305 -0.26179031 0.71653581 8454658
0.20749314 -0.26016942 0.71209937 8454658
0.2074932 -0.25856847 0.70771742 8454658
0.20749329 -0.25698709 0.70338917 8454658
0.20749336 -0.25542495 0.69911349 8454658
0.2084167 -0.25501138 0.69798148 16712708
0.20967601 -0.25501138 0.69798148 16712708
0.21093534 -0.25501138 0.69798148 16712708
0.21219465 -0.25501138 0.69798148 16712708
0.21345396 -0.25501138 0.69798148 16712708
0.21471328 -0.25501138 0.69798148 16712708
0.21597262 -0.25501138 0.69798154 16712708
0.21723193 -0.25501138 0.69798154 16712708
0.21849124 -0.25501138 0.69798154 16712708
0.21975055 -0.25501138 0.69798154 16712708
0.22100988 -0.25501138 0.69798154 16712708
0.22226921 -0.25501141 0.6979816 16712708
0.22352852 -0.25501141 0.6979816 16712708
0.22478785 -0.25501141 0.6979816 16712708
0.22604716 -0.25501141 0.6979816 16712451
0.22730647 -0.25501141 0.6979816 16712451
0.22856581 -0.25501144 0.69798166 16712451
0.22982512 -0.25501144 0.69798166 16712451
0.23108444 -0.25501144 0.69798166 16712451
0.23234375 -0.25501144 0.69798166 16712451
0.20749298 -0.26378444 0.725577 8454658
0.20749304 -0.26213071 0.72102815 8454658
0.20749305 -0.26049751 0.71653581 8454658
0.20749314 -0.25888464 0.71209937 8454658
0.2074932 -0.25729159 0.70771742 8454658
0.20749329 -0.25571802 0.70338917 8454658
0.20749336 -0.25416359 0.69911349 16712708
0.20874903 -0.25415668 0.69909441 16712708
0.21001035 -0.25415668 0.69909441 16712708
0.21127169 -0.25415668 0.69909447 16712708
0.21253301 -0.25415668 0.69909447 16712708
0.21379434 -0.25415668 0.69909447 16712708
0.21505566 -0.25415668 0.69909447 16712708
0.216317 -0.25415671 0.69909453 16712708
0.21757832 -0.25415671 0.69909453 16712708
0.21883965 -0.25415671 0.69909453 16712708
0.22010097 -0.25415671 0.69909453 16712708
0.22136229 -0.25415671 0.69909453 16712451
0.22262363 -0.25415674 0.69909459 16712451
0.22388496 -0.25415674 0.69909459 16712451
0.22514628 -0.25415674 0.69909459 16712451
0.2264076 -0.25415674 0.69909459 16712451
0.22766893 -0.25415674 0.69909459 16712451
0.22893028 -0.25415674 0.69909465 16712451
0.2301916 -0.25415674 0.69909465 16712451
0.23145293 -0.25415674 0.69909465 16712451
0.20749298 -0.26247534 0.725577 8454658
0.20749304 -0.26082981 0.72102815 8454658
0.20749305 -0.25920472 0.71653581 8454658
0.20749314 -0.25759986 0.71209937 8454658
0.2074932 -0.25601467 0.70771742 8454658
0.20749329 -0.25444895 0.70338917 8454658
0.20781907 -0.25329924 0.70021093 16712708
0.20908242 -0.25329927 0.70021099 16712708
0.21034577 -0.25329927 0.70021099 16712708
0.21160911 -0.25329927 0.70021099 16712708
0.21287245 -0.25329927 0.70021099 16712708
0.21413578 -0.25329927 0.70021099 16712708
0.21539912 -0.25329927 0.70021099 16712451
0.21666248 -0.2532993 0.70021105 16712451
0.21792582 -0.2532993 0.70021105 16712451
0.21918915 -0.2532993 0.70021105 16712451
0.22045249 -0.2532993 0.70021105 16712451
0.22171582 -0.2532993 0.70021105 16712451
0.22297919 -0.2532993 0.70021111 16712451
0.22424252 -0.2532993 0.70021111 16712451
0.22550586 -0.2532993 0.70021111 16712451
0.22676921 -0.2532993 0.70021111 16712451
0.22803254 -0.2532993 0.70021111 16712451
0.22929589 -0.25329933 0.70021117 16712451
0.23055923 -0.25329933 0.70021117 16712451
0.23182258 -0.25329933 0.70021117 16712451
0.20749296 -0.26116621 0.72557694 8454658
0.20749302 -0.25952888 0.72102809 8454658
0.20749305 -0.25791192 0.71653581 8454658
0.20749314 -0.25631505 0.71209937 8454658
0.2074932 -0.25473779 0.70771742 8454658
0.20749329 -0.25317988 0.70338917 8454658
0.20815149 -0.25243905 0.70133096 16712708
0.20941687 -0.25243908 0.70133102 16712708
0.21068223 -0.25243908 0.70133102 16712451
0.21194759 -0.25243908 0.70133102 16712451
0.21321295 -0.25243908 0.70133102 16712451
0.21447831 -0.25243908 0.70133102 16712451
0.21574366 -0.25243908 0.70133102 16712451
0.21700904 -0.25243908 0.70133108 16712451
0.2182744 -0.25243908 0.70133108 16712451
0.21953976 -0.25243908 0.70133108 16712451
0.22080512 -0.25243908 0.70133108 16712451
0.22207049 -0.25243908 0.70133108 16712451
0.22333586 -0.25243911 0.70133114 16712451
0.22460121 -0.25243911 0.70133114 16712451
0.22586657 -0.25243911 0.70133114 16712451
0.22713193 -0.25243911 0.70133114 16712451
0.22839729 -0.25243911 0.70133114 16712451
0.22966267 -0.25243914 0.7013312 16712451
0.23092803 -0.25243914 0.7013312 16712451
0.2321934 -0.25243914 0.7013312 16712451
0.20749287 -0.26150689 0.73018348 8454658
0.20749296 -0.25985712 0.72557694 8454658
0.20749302 -0.258228 0.72102809 8454658
0.20749305 -0.25661913 0.71653581 8454658
0.20749314 -0.25503027 0.71209937 8454658
0.2074932 -0.25346091 0.70771742 8454658
0.20749329 -0.25191081 0.70338917 8454658
0.20848499 -0.25157613 0.70245463 16712451
0.2097524 -0.25157613 0.70245469 16712451
0.21101978 -0.25157613 0.70245469 16712451
0.21228717 -0.25157613 0.70245469 16712451
0.21355456 -0.25157613 0.70245469 16712451
0.21482195 -0.25157613 0.70245469 16712451
0.21608932 -0.25157613 0.70245469 16712451
0.21735673 -0.25157616 0.70245475 16712451
0.21862411 -0.25157616 0.70245475 16712451
0.2198915 -0.25157616 0.70245475 16712451
0.22115889 -0.25157616 0.70245475 16712451
0.22242628 -0.25157616 0.70245475 16712451
0.22369368 -0.25157619 0.70245481 16712451
0.22496107 -0.25157619 0.70245481 16712451
0.22622846 -0.25157619 0.70245481 16712451
0.22749585 -0.25157619 0.70245481 16712451
0.22876322 -0.25157619 0.70245481 16712451
0.23003064 -0.25157622 0.70245486 16712451
0.23129801 -0.25157622 0.70245486 16712451
0.20749287 -0.26018947 0.73018348 8454658
0.20749296 -0.25854799 0.72557694 8454658
0.20749302 -0.2569271 0.72102809 8454658
0.20749304 -0.25532633 0.71653575 8454658
0.20749313 -0.25374547 0.71209931 8454658
0.20749319 -0.25218403 0.70771736 8454658
0.20755015 -0.25071043 0.70358193 16712451
0.20881957 -0.25071043 0.70358193 16712451
0.21008901 -0.25071046 0.70358199 16712451
0.21135843 -0.25071046 0.70358199 16712451
0.21262784 -0.25071046 0.70358199 16712451
0.21389727 -0.25071046 0.70358199 16712451
0.21516669 -0.25071046 0.70358199 16712451
0.2164361 -0.25071046 0.70358199 16712451
0.21770555 -0.25071046 0.70358205 16712451
0.21897496 -0.25071046 0.70358205 16712451
0.22024439 -0.25071046 0.70358205 16712451
0.22151381 -0.25071046 0.70358205 16712451
0.22278322 -0.25071046 0.70358205 16712451
0.22405267 -0.25071049 0.70358211 16712451
0.22532208 -0.25071049 0.70358211 16712451
0.22659151 -0.25071049 0.70358211 16712451
0.22786093 -0.25071049 0.70358211 16712451
0.22913034 -0.25071049 0.70358211 16712451
0.23039979 -0.25071052 0.70358217 16712451
0.2316692 -0.25071052 0.70358217 16712451
0.20749287 -0.25887206 0.73018348 8454658
0.20749296 -0.25723889 0.72557694 8454658
0.20749302 -0.2556262 0.72102809 8454658
0.20749304 -0.25403354 0.71653575 8454658
0.20749313 -0.25246069 0.71209931 8454658
0.20749319 -0.25090715 0.70771736 8454658
0.20788375 -0.24984194 0.70471281 16712451
0.20915522 -0.24984194 0.70471281 16712451
0.21042669 -0.24984196 0.70471287 16712451
0.21169814 -0.24984196 0.70471287 16712451
0.21296962 -0.24984196 0.70471287 16712451
0.21424107 -0.24984196 0.70471287 16712451
0.21551253 -0.24984196 0.70471287 16712451
0.21678399 -0.24984196 0.70471287 16712451
0.21805547 -0.24984199 0.70471293 16712451
0.21932693 -0.24984199 0.70471293 16712451
0.22059838 -0.24984199 0.70471293 16712451
0.22186986 -0.24984199 0.70471293 16712451
0.22314131 -0.24984199 0.70471293 16712451
0.22441278 -0.249842 0.70471299 16712451
0.22568426 -0.249842 0.70471299 16712451
0.22695571 -0.249842 0.70471299 16712451
0.22822717 -0.249842 0.70471299 16712451
0.22949864 -0.249842 0.70471299 16712451
0.23077011 -0.24984202 0.70471305 16712451
0.23204157 -0.24984202 0.70471305 16712451
0.20749286 -0.25755462 0.73018342 8454658
0.20749293 -0.25592977 0.72557688 8454658
0.20749301 -0.25432527 0.72102803 8454658
0.20749304 -0.25274074 0.71653575 8454658
0.20749313 -0.25117588 0.71209931 8454658
0.20749319 -0.24963026 0.70771736 8454658
0.20821843 -0.24897066 0.70584732 16712451
0.20949192 -0.24897066 0.70584732 16712451
0.21076545 -0.24897067 0.70584738 16712451
0.21203896 -0.24897067 0.70584738 16712451
0.21331246 -0.24897067 0.70584738 16712451
0.21458597 -0.24897067 0.70584738 16712451
0.21585949 -0.24897067 0.70584738 16712451
0.21713299 -0.24897067 0.70584738 16712451
0.21840651 -0.24897069 0.70584744 16712451
0.21968003 -0.24897069 0.70584744 16712451
0.22095352 -0.24897069 0.70584744 16712451
0.22222704 -0.24897069 0.70584744 16712451
0.22350055 -0.24897069 0.70584744 16712451
0.22477408 -0.24897072 0.7058475 16712451
0.22604758 -0.24897072 0.7058475 16712451
0.22732109 -0.24897072 0.7058475 16712451
0.2285946 -0.24897072 0.7058475 16712451
0.2298681 -0.24897072 0.7058475 16712451
0.23114163 -0.24897073 0.70584756 16712451
0.23241514 -0.24897073 0.70584756 16712451
0.2074928 -0.25787443 0.73484892 8454658
0.20749286 -0.25623721 0.73018342 8454658
0.20749293 -0.25462067 0.72557688 8454658
0.20749296 -0.25302434 0.72102791 8454658
0.20749304 -0.25144795 0.71653575 8454658
0.20749313 -0.2498911 0.71209931 8454658
0.20749319 -0.24835338 0.70771736 8454658
0.20855418 -0.24809657 0.70698553 16712451
0.20982975 -0.24809657 0.70698553 16712451
0.21110532 -0.24809659 0.70698559 16712451
0.21238089 -0.24809659 0.70698559 16712451
0.21365644 -0.24809659 0.70698559 16712451
0.21493201 -0.24809659 0.70698559 16712451
0.21620758 -0.24809662 0.70698565 16712451
0.21748315 -0.24809662 0.70698565 16712451
0.21875873 -0.24809663 0.70698571 16712451
0.22003429 -0.24809663 0.70698571 16712451
0.22130984 -0.24809663 0.70698571 16712451
0.22258541 -0.24809663 0.70698571 16712451
0.22386096 -0.24809663 0.70698571 16712451
0.22513655 -0.24809664 0.70698577 16712451
0.22641212 -0.24809664 0.70698577 16712451
0.22768767 -0.24809664 0.70698577 16712451
0.22896323 -0.24809664 0.70698577 16712451
0.2302388 -0.24809664 0.70698577 16712451
0.23151438 -0.24809667 0.70698583 16712451
0.2074928 -0.25654861 0.73484892 8454658
0.20749286 -0.2549198 0.73018342 8454658
0.20749293 -0.25331157 0.72557688 8454658
0.20749296 -0.25172344 0.72102791 8454658
0.20749304 -0.25015515 0.71653575 8454658
0.20749313 -0.24860631 0.71209931 8454658
0.20761341 -0.24721967 0.70812744 16712451
0.20889103 -0.24721967 0.70812744 16712451
0.21016866 -0.24721967 0.70812744 16712451
0.2114463 -0.24721968 0.7081275 16712451
0.21272391 -0.24721968 0.7081275 16712451
0.21400154 -0.24721968 0.7081275 16712451
0.21527916 -0.24721968 0.7081275 16712451
0.21655677 -0.24721968 0.7081275 16712451
0.2178344 -0.24721968 0.7081275 16712451
0.21911204 -0.24721971 0.70812756 16712451
0.22038966 -0.24721971 0.70812756 16712451
0.22166729 -0.24721971 0.70812756 16712451
0.2229449 -0.24721971 0.70812756 16712451
0.22422253 -0.24721971 0.70812756 16712451
0.22550017 -0.24721973 0.70812762 16712451
0.22677779 -0.24721973 0.70812762 16712451
0.2280554 -0.24721973 0.70812762 16712451
0.22933303 -0.24721973 0.70812762 16712451
0.23061065 -0.24721973 0.70812762 16712451
0.23188829 -0.24721976 0.70812768 16712451
0.2074928 -0.25522277 0.73484892 8454658
0.20749286 -0.25360239 0.73018342 8454658
0.20749293 -0.25200248 0.72557688 8454658
0.20749296 -0.25042254 0.72102791 8454658
0.20749304 -0.24886236 0.71653575 8454658
0.20749313 -0.24732153 0.71209931 8454658
0.20794927 -0.2463399 0.70927298 16712451
0.20922896 -0.2463399 0.70927298 16712451
0.21050864 -0.2463399 0.70927298 16712451
0.21178836 -0.24633993 0.70927304 16712451
0.21306804 -0.24633993 0.70927304 16712451
0.21434774 -0.24633993 0.70927304 16712451
0.21562742 -0.24633993 0.70927304 16712451
0.2169071 -0.24633993 0.70927304 16712451
0.2181868 -0.24633993 0.70927304 16712451
0.21946649 -0.24633995 0.7092731 16712451
0.22074619 -0.24633995 0.7092731 16712451
0.22202587 -0.24633995 0.7092731 16712451
0.22330557 -0.24633995 0.7092731 16712451
0.22458525 -0.24633995 0.7092731 16712451
0.22586496 -0.24633996 0.70927316 16712451
0.22714464 -0.24633996 0.70927316 16712451
0.22842434 -0.24633996 0.70927316 16712451
0.22970402 -0.24633996 0.70927316 16712451
0.2309837 -0.24633996 0.70927316 16712451
0.23226342 -0.24633999 0.70927322 16712451
0.20749278 -0.25389692 0.73484886 8454658
0.20749284 -0.25228494 0.73018336 8454658
0.2074929 -0.25069332 0.72557676 8454658
0.20749296 -0.24912165 0.72102791 8454658
0.20749304 -0.24756958 0.71653575 8454658
0.20749313 -0.24603674 0.71209931 8454658
0.20828623 -0.24545731 0.71042228 16712451
0.20956799 -0.24545731 0.71042228 16712451
0.21084975 -0.24545731 0.71042228 16712451
0.21213153 -0.24545734 0.71042234 16712451
0.2134133 -0.24545734 0.71042234 16712451
0.21469505 -0.24545734 0.71042234 16712451
0.21597682 -0.24545734 0.71042234 16712451
0.21725857 -0.24545734 0.71042234 16712451
0.21854034 -0.24545734 0.71042234 16712451
0.21982212 -0.24545735 0.7104224 16712451
0.22110388 -0.24545735 0.7104224 16712451
0.22238564 -0.24545735 0.7104224 16712451
0.2236674 -0.24545735 0.7104224 16712451
0.22494917 -0.24545735 0.7104224 16712451
0.22623095 -0.24545737 0.71042246 16712451
0.2275127 -0.24545737 0.71042246 16712451
0.22879447 -0.24545737 0.71042246 16712451
0.23007624 -0.24545737 0.71042246 16712451
0.23135799 -0.24545737 0.71042246 16712451
0.20749278 -0.25257108 0.73484886 8454658
0.20749284 -0.25096753 0.73018336 8454658
0.2074929 -0.24938422 0.72557676 8454658
0.20749295 -0.24782073 0.72102785 8454658
0.20749302 -0.24627675 0.71653569 8454658
0.20749311 -0.24475193 0.71209925 8454658
0.20862427 -0.24457183 0.71157527 16712451
0.20990811 -0.24457183 0.71157527 16712451
0.21119195 -0.24457183 0.71157527 16712451
0.21247582 -0.24457186 0.71157533 16712451
0.21375966 -0.24457186 0.71157533 16712451
0.2150435 -0.24457186 0.71157533 16712451
0.21632734 -0.24457186 0.71157533 16712451
0.21761118 -0.24457186 0.71157533 16712451
0.21889502 -0.24457186 0.71157533 16712451
0.22017889 -0.24457188 0.71157539 16712451
0.22146273 -0.24457188 0.71157539 16712451
0.22274657 -0.24457188 0.71157539 16712451
0.22403041 -0.24457188 0.71157539 16712451
0.22531424 -0.24457188 0.71157539 16712451
0.22659811 -0.24457189 0.71157545 16712451
0.22788195 -0.24457189 0.71157545 16712451
0.22916579 -0.24457189 0.71157545 16712451
0.23044963 -0.24457189 0.71157545 16712451
0.23173349 -0.24457189 0.71157545 16712451
0.20749278 -0.25124526 0.73484886 8454658
0.20749284 -0.24965012 0.73018336 8454658
0.2074929 -0.24807511 0.72557676 8454658
0.20749295 -0.24651983 0.72102785 8454658
0.20749302 -0.24498397 0.71653569 8454658
0.20767748 -0.24368349 0.71273202 16712451
0.20896341 -0.24368349 0.71273202 16712451
0.21024935 -0.24368349 0.71273202 16712451
0.21153527 -0.24368349 0.71273202 16712451
0.21282122 -0.24368352 0.71273208 16712451
0.21410714 -0.24368352 0.71273208 16712451
0.21539308 -0.24368352 0.71273208 16712451
0.21667901 -0.24368352 0.71273208 16712451
0.21796493 -0.24368352 0.71273208 16712451
0.21925089 -0.24368353 0.71273214 16712451
0.22053681 -0.24368353 0.71273214 16712451
0.22182274 -0.24368353 0.71273214 16712451
0.22310866 -0.24368353 0.71273214 16712451
0.22439459 -0.24368353 0.71273214 16712451
0.22568053 -0.24368353 0.71273214 16712451
0.22696647 -0.24368355 0.7127322 16712451
0.2282524 -0.24368355 0.7127322 16712451
0.22953834 -0.24368355 0.7127322 16712451
0.23082426 -0.24368355 0.7127322 16712451
0.23211019 -0.24368355 0.7127322 16712451
0.20749284 -0.24833269 0.73018336 8454658
0.2074929 -0.24676602 0.72557676 8454658
0.20749295 -0.24521895 0.72102785 8454658
0.20749302 -0.24369118 0.71653569 8454658
0.20801565 -0.24279226 0.71389258 16712451
0.20930368 -0.24279226 0.71389258 16712451
0.2105917 -0.24279226 0.71389258 16712451
0.21187972 -0.24279226 0.71389258 16712451
0.21316776 -0.24279228 0.71389264 16712451
0.21445578 -0.24279228 0.71389264 16712451
0.21574381 -0.24279228 0.71389264 16712451
