# .PCD v0.7 - Point Cloud Data file format
VERSION 0.7
FIELDS x y z rgb
SIZE 4 4 4 4
TYPE F F F U
COUNT 1 1 1 1
WIDTH 452
HEIGHT 1
VIEWPOINT 0 0 0 1 0 0 0
POINTS 452
DATA ascii
0.10806239 -0.063243888 0.55201924 66002
0.10817748 -0.062314212 0.55260712 66013
0.10875861 -0.062076833 0.550502 131839
0.10940614 -0.061881304 0.54876804 131839
0.10890452 -0.061165553 0.55124056 131839
0.10955247 -0.060972638 0.54950196 131839
0.11027908 -0.060826581 0.54818565 131839
0.1084084 -0.060448922 0.55378675 131827
0.10905083 -0.060251832 0.55198115 131839
0.10971262 -0.060068902 0.55030531 131839
0.11044685 -0.059928559 0.54901958 131839
0.11117958 -0.059789903 0.54774934 197631
0.11197557 -0.059687421 0.54681045 197631
0.10854463 -0.059524477 0.5544827 131836
0.10919753 -0.059335645 0.55272371 131839
0.10988018 -0.059166249 0.55114573 131839
0.11061511 -0.059027795 0.54985601 131839
0.11136441 -0.058899399 0.54865998 197631
0.11216142 -0.058798276 0.54771799 197631
0.11295567 -0.058697484 0.5467791 197631
0.11379874 -0.058623593 0.54609078 197631
0.12802793 -0.058823645 0.54795432 131839
0.10869131 -0.058603153 0.55523199 131839
0.10934462 -0.058416992 0.55346823 131839
0.11004822 -0.058260821 0.5519886 131839
0.11078388 -0.058124278 0.55069494 197631
0.11154987 -0.058005929 0.54957366 197631
0.11234787 -0.057906173 0.54862851 197631
0.1131499 -0.05781021 0.5477193 197631
0.11400126 -0.057740901 0.54706264 197631
0.11485057 -0.057671748 0.54640746 197631
0.11572929 -0.057618413 0.54590213 197631
0.11662994 -0.057576802 0.54550791 197631
0.11752928 -0.057535257 0.54511428 197631
0.11848156 -0.057520095 0.54497063 197631
0.12244527 -0.057534527 0.54510736 197631
0.12353706 -0.057585005 0.54558563 197631
0.12463076 -0.057635568 0.54606467 197631
0.1258148 -0.057726789 0.54692894 197631
0.12702666 -0.057829257 0.54789978 131839
0.10823576 -0.057893548 0.55804819 66019
0.10883839 -0.057679333 0.5559833 131839
0.10949212 -0.057495859 0.55421478 131839
0.11021679 -0.057352629 0.55283415 131839
0.11095317 -0.057218 0.55153644 197631
0.11173594 -0.057109479 0.55049038 197631
0.11253496 -0.057011098 0.54954207 197631
0.11335186 -0.056923423 0.54869694 197631
0.1142045 -0.056855049 0.54803789 197631
0.11505508 -0.056786839 0.54738039 197631
0.11594846 -0.056740735 0.54693598 197631
0.11685065 -0.056699682 0.54654026 197631
0.11776356 -0.056664474 0.54620087 197631
0.11871946 -0.056650363 0.54606485 197631
0.11967488 -0.056636259 0.5459289 197631
0.12067104 -0.056641508 0.5459795 197631
0.12168843 -0.056656558 0.54612458 197631
0.12272646 -0.056680895 0.54635918 197631
0.12382101 -0.056730743 0.54683965 197631
0.12493027 -0.056786489 0.54737699 197631
0.12613158 -0.056882869 0.54830605 197631
0.12738949 -0.057003077 0.54946476 131839
0.1083523 -0.05694795 0.558649 131821
0.10898588 -0.056753013 0.55673671 131839
0.10964527 -0.056574956 0.55498999 131839
0.11038588 -0.056441646 0.55368227 131839
0.11112299 -0.056308959 0.55238062 197631
0.11192264 -0.056210037 0.5514102 197631
0.11272265 -0.056113038 0.55045867 197631
0.11355454 -0.056033462 0.54967803 197631
0.11440846 -0.055966042 0.54901665 197631
0.11526342 -0.055900287 0.54837161 197631
0.11616846 -0.05585973 0.54797375 197631
0.11707221 -0.055819239 0.54757655 197631
0.11800054 -0.05579105 0.54730004 197631
0.11895831 -0.055777133 0.54716349 197631
0.1199156 -0.055763222 0.54702705 197631
0.1209295 -0.05577565 0.54714894 197631
0.12194916 -0.055790506 0.54729468 197631
0.12300894 -0.055823334 0.54761672 197631
0.12410626 -0.055872537 0.5480994 197631
0.12524511 -0.055939514 0.54875642 197631
0.12644999 -0.056034699 0.54969019 197631
0.12775441 -0.05617217 0.55103874 131839
0.10847501 -0.056003377 0.55928171 131832
0.10913376 -0.055824179 0.55749214 131839
0.10981413 -0.055659216 0.55584472 131839
0.11055548 -0.055527862 0.55453295 131839
0.11130614 -0.055403505 0.55329102 197631
0.11210996 -0.055307578 0.55233306 197631
0.11291098 -0.055211976 0.55137831 197631
0.11375795 -0.055140316 0.5506627 197631
0.11461315 -0.055073854 0.54999894 197631
0.1154827 -0.055015363 0.54941481 197631
0.1163893 -0.054975372 0.54901546 197631
0.11729459 -0.054935444 0.54861671 197631
0.11823849 -0.054914113 0.54840368 197631
0.11919812 -0.054900378 0.54826653 197631
0.12016774 -0.054891437 0.54817724 197631
0.12118908 -0.054906074 0.54832339 197631
0.12221101 -0.054920737 0.54846984 197631
0.12329273 -0.054961819 0.5488801 197631
0.12439282 -0.055010371 0.54936498 197631
0.12556152 -0.055088256 0.55014277 197631
0.12676999 -0.05518223 0.55108124 131839
0.10862287 -0.055069268 0.56004405 131839
0.10928204 -0.054892819 0.55824959 131839
0.10998353 -0.054740656 0.55670214 131839
0.1107256 -0.054611266 0.55538625 131839
0.11149306 -0.054496609 0.5542202 197631
0.1122979 -0.054402094 0.55325902 197631
0.11310355 -0.054309633 0.55231869 197631
0.1139621 -0.054243967 0.55165088 197631
0.11481858 -0.054178465 0.55098474 197631
0.11570281 -0.054127064 0.55046201 197631
0.11661099 -0.05408765 0.55006117 197631
0.11751785 -0.054048292 0.54966092 197631
0.1184774 -0.054033622 0.54951173 197631
0.1194389 -0.054020084 0.54937404 197631
0.12042616 -0.054018322 0.5493561 197631
0.12144978 -0.054032758 0.54950291 197631
0.12247688 -0.054048497 0.54966301 197631
0.12357781 -0.054096311 0.55014926 197631
0.12468071 -0.054144215 0.55063641 197631
0.12587954 -0.054232683 0.55153614 197631
0.1271116 -0.054333977 0.55256629 131839
0.1081777 -0.054342788 0.5629859 66013
0.10877114 -0.054132611 0.56080848 131839
0.10943072 -0.053958926 0.55900913 131839
0.11015344 -0.053819258 0.55756217 131839
0.11089625 -0.053691849 0.55624223 197631
0.11168062 -0.053586666 0.55515254 197631
0.11248649 -0.053493574 0.55418813 197631
0.11330713 -0.053409088 0.55331284 197631
0.11416697 -0.053344391 0.55264258 197631
0.11502475 -0.053279866 0.55197412 197631
0.11592377 -0.053235382 0.55151325 197631
0.11683352 -0.053196538 0.55111086 197631
0.11775339 -0.053162921 0.55076259 197631
0.11871726 -0.05314957 0.55062425 197631
0.11968066 -0.053136226 0.55048603 197631
0.1206857 -0.053141437 0.55054003 197631
0.12171159 -0.053155672 0.55068749 197631
0.12276049 -0.053179648 0.55093586 197631
0.12386424 -0.053226802 0.55142438 197631
0.12498762 -0.053281575 0.55199182 197631
0.12619919 -0.053372778 0.55293667 197631
0.12747779 -0.05349068 0.55415815 131839
0.10891981 -0.053193394 0.561575 131839
0.10957981 -0.053022485 0.5597707 131839
0.11032386 -0.052895002 0.55842483 131839
0.11106743 -0.05276959 0.55710083 197631
0.11186881 -0.052673653 0.55608797 197631
0.11267568 -0.052581985 0.55512023 197631
0.11351144 -0.052505292 0.55431056 197631
0.11437259 -0.052441578 0.55363792 197631
0.11523291 -0.052378595 0.55297297 197631
0.11614557 -0.05234028 0.5525685 197631
0.1170569 -0.052302018 0.55216455 197631
0.11799234 -0.052275088 0.55188024 197631
0.11895812 -0.052261934 0.55174136 197631
0.1199234 -0.052248783 0.55160254 197631
0.12094636 -0.052260775 0.55172914 197631
0.12197454 -0.052274805 0.55187726 197631
0.12304541 -0.052306756 0.55221456 197631
0.12415199 -0.052353248 0.55270541 197631
0.12530525 -0.052418534 0.55339462 197631
0.12652045 -0.052508488 0.5543443 131839
0.12784608 -0.052642502 0.55575913 131839
0.10906888 -0.0522516 0.5623436 131839
0.10974696 -0.052091878 0.5606246 131839
0.11049482 -0.051967885 0.55929017 131839
0.11124688 -0.051848095 0.55800098 197631
0.11205763 -0.051757563 0.55702662 197631
0.11286554 -0.051667336 0.55605561 197631
0.11371648 -0.051598229 0.55531186 197631
0.11457895 -0.05153551 0.55463684 197631
0.11545397 -0.051479477 0.55403382 197631
0.11636823 -0.051441751 0.55362779 197631
0.11728114 -0.051404074 0.5532223 197631
0.11823225 -0.051383637 0.55300236 197631
0.11919993 -0.05137068 0.55286294 197631
0.12017823 -0.051362481 0.55277467 197631
0.12120816 -0.051376298 0.55292338 197631
0.12223864 -0.051390123 0.55307215 197631
0.12333168 -0.051429808 0.55349928 197631
0.12444106 -0.051475622 0.55399233 197631
0.12562451 -0.051551092 0.55480456 197631
0.12684333 -0.051639777 0.55575901 131839
0.10855323 -0.051473599 0.56494027 131836
0.10921838 -0.051307239 0.5631144 131839
0.1099177 -0.051159851 0.56149679 131839
0.11066631 -0.051037889 0.56015819 131839
0.11143529 -0.050927442 0.55894601 197631
0.11224709 -0.050838366 0.55796838 197631
0.11305641 -0.050749768 0.55699599 197631
0.11392229 -0.05068789 0.55631685 197631
0.11478606 -0.050626162 0.55563939 197631
0.11567588 -0.050576903 0.55509871 197631
0.11659174 -0.050539766 0.55469114 197631
0.11750624 -0.05050268 0.5542841 197631
0.11847316 -0.050488558 0.55412912 197631
0.11944275 -0.050475806 0.55398917 197631
0.12043884 -0.050474368 0.55397338 197631
0.12147108 -0.050487977 0.55412275 197631
0.12250899 -0.050503705 0.55429536 197631
0.12361927 -0.05054877 0.55478996 197631
0.1247315 -0.050593901 0.55528527 197631
0.12594539 -0.050679222 0.55622172 197631
0.12719801 -0.05077865 0.55731297 131839
0.1087027 -0.050523788 0.56571811 131839
0.10936827 -0.050360274 0.56388724 131839
0.11008898 -0.050224926 0.56237173 131839
0.11083834 -0.050105006 0.56102896 197631
0.11162435 -0.05000367 0.55989432 197631
0.11243717 -0.049916055 0.55891329 197631
0.11326164 -0.049835119 0.55800706 197631
0.11412882 -0.049774244 0.55732542 197631
0.11499391 -0.049713522 0.55664551 197631
0.11589865 -0.049670853 0.55616772 197631
0.11681611 -0.049634311 0.5557586 197631
0.11774305 -0.049602389 0.55540115 197631
0.11871504 -0.049589828 0.55526048 197631
0.11968655 -0.049577273 0.55511993 197631
0.12070061 -0.049582407 0.55517739 197631
0.12173516 -0.049595803 0.55532742 197631
0.12279507 -0.049619231 0.55558974 197631
0.1239082 -0.049663611 0.55608666 197631
0.12504594 -0.049717061 0.55668515 197631
0.12626791 -0.049802884 0.5576461 197631
0.12756757 -0.04991775 0.55893224 131839
0.10823709 -0.049758285 0.56863427 66019
0.10885257 -0.049571358 0.5664981 131839
0.10951857 -0.049410705 0.56466216 131839
0.11026078 -0.049287077 0.56324935 131839
0.11101092 -0.049169216 0.56190246 197631
0.11181406 -0.049076758 0.56084585 197631
0.11262792 -0.048990622 0.55986148 197631
0.1134676 -0.048917145 0.55902177 197631
0.11433611 -0.048857283 0.55833769 197631
0.11520252 -0.048797574 0.55765533 197631
0.11612229 -0.048761308 0.5572409 197631
0.11704134 -0.048725367 0.55683017 197631
0.11798397 -0.048699766 0.55653763 197631
0.11895791 -0.048687413 0.55639642 197631
0.11993135 -0.048675068 0.55625534 197631
0.12096349 -0.048686553 0.55638659 197631
0.12200038 -0.04869974 0.55653733 197631
0.12308249 -0.048730619 0.55689019 197631
0.12419847 -0.048774295 0.55738932 197631
0.12536643 -0.048837524 0.55811191 197631
0.1265921 -0.048922047 0.5590778 131839
0.1279393 -0.049051829 0.56056094 131839
0.10900288 -0.048616309 0.56728035 131839
0.10967864 -0.048462655 0.56548744 131839
0.11043313 -0.0483463 0.56412977 131839
0.11118659 -0.048231628 0.56279171 197631
0.11200441 -0.048146691 0.5618006 197631
0.11281932 -0.048062041 0.56081289 197631
0.11367431 -0.047995821 0.56004018 197631
0.11454415 -0.04793698 0.55935359 197631
0.11542477 -0.047883641 0.5587312 197631
0.11634678 -0.047848247 0.5583182 197631
0.11726744 -0.047812905 0.55790585 197631
0.1182259 -0.047793452 0.55767882 197631
0.11920179 -0.047781307 0.55753714 197631
0.1201889 -0.047773831 0.55744988 197631
0.12122754 -0.047786787 0.55760109 197631
0.12226676 -0.047799762 0.55775249 197631
0.12337127 -0.047837839 0.55819678 197631
0.12449012 -0.047880813 0.55869824 197631
0.12568858 -0.047953472 0.55954605 197631
0.12691796 -0.048036676 0.56051689 131839
0.10848237 -0.047814503 0.56992286 131832
0.10915359 -0.047658611 0.56806469 131839
0.10985075 -0.047516838 0.56637484 131839
0.11060601 -0.047402579 0.56501293 131839
0.11137654 -0.047296885 0.56375313 197631
0.11219538 -0.047213439 0.56275851 197631
0.11301136 -0.047130298 0.56176752 197631
0.11388178 -0.047071137 0.56106234 197631
0.11475296 -0.047013324 0.56037325 197631
0.11564852 -0.04696643 0.55981427 197631
0.11657214 -0.046931639 0.5593996 197631
0.11749443 -0.046896916 0.55898571 197631
0.11846884 -0.046883415 0.55882478 197631
0.11944664 -0.046871468 0.55868238 197631
0.12045176 -0.046870347 0.55866903 197631
0.12149274 -0.046883088 0.5588209 197631
0.12254167 -0.046898659 0.55900651 197631
0.12366139 -0.046940856 0.55950946 197631
0.12478353 -0.046983272 0.56001502 197631
0.12601238 -0.047064867 0.56098759 197631
0.12728588 -0.047161702 0.56214184 131839
0.10863305 -0.046851221 0.57071447 131839
0.1093047 -0.046698254 0.56885111 131839
0.11002342 -0.046568051 0.56726509 131839
0.11077944 -0.046455894 0.56589884 131839
0.11156712 -0.046358943 0.56471783 197631
0.11238703 -0.046277013 0.56371981 197631
0.11321535 -0.046199985 0.56278151 197631
0.11409002 -0.046143074 0.56208825 197631
0.11496253 -0.0460863 0.56139666 197631
0.11587313 -0.046045654 0.56090152 197631
0.11679839 -0.046011485 0.5604853 197631
0.11773251 -0.045981366 0.56011844 197631
0.11871277 -0.045969624 0.55997539 197631
0.11969253 -0.045957889 0.55983245 197631
0.12071575 -0.0459629 0.55989349 197631
0.1217591 -0.045975428 0.56004608 197631
0.12283026 -0.045998167 0.56032306 197631
0.12395289 -0.046039645 0.56082833 197631
0.12510526 -0.046091415 0.56145895 197631
0.12633786 -0.046171665 0.56243652 197631
0.10817794 -0.046066202 0.573762 66013
0.10878416 -0.045885261 0.57150835 131839
0.10945625 -0.04573524 0.5696398 131839
0.11019662 -0.045616277 0.56815809 131839
0.11095342 -0.045506243 0.5667876 197631
0.11175836 -0.045417782 0.56568581 197631
0.11257934 -0.045337379 0.56468439 197631
0.11342299 -0.045267474 0.56381369 197631
0.11429901 -0.045211609 0.56311792 197631
0.11517286 -0.045155879 0.56242377 197631
0.11609862 -0.045121297 0.56199306 197631
0.1170255 -0.045087747 0.56157517 197631
0.11797548 -0.045063592 0.56127435 197631
0.11895771 -0.045052066 0.56113076 197631
0.11993941 -0.045040537 0.56098717 197631
0.12098092 -0.045051474 0.56112337 197631
0.12202664 -0.045063782 0.56127667 197631
0.12312022 -0.045093413 0.56164575 197631
0.12424576 -0.045134176 0.56215346 197631
0.12542868 -0.045194946 0.56291038 197631
0.12666501 -0.045273837 0.56389296 131839
0.10893569 -0.044916611 0.57230443 131839
0.10960911 -0.04476992 0.57043535 131839
0.11037035 -0.044661492 0.56905383 131839
0.11112793 -0.044553593 0.56767905 197631
0.11195025 -0.044473384 0.56665707 197631
0.11277229 -0.044394523 0.56565225 197631
0.1136314 -0.044331536 0.56484967 197631
0.11450878 -0.044276726 0.56415135 197631
0.11539507 -0.044226304 0.56350887 197631
0.11632498 -0.044193331 0.56308877 197631
0.11725351 -0.044160414 0.56266934 197631
0.11821947 -0.044142034 0.56243515 197631
0.11920365 -0.044130713 0.56229091 197631
0.12019975 -0.044123959 0.56220484 197631
0.12124726 -0.044136032 0.56235868 197631
0.12229535 -0.044148114 0.56251264 197631
0.12341157 -0.044184387 0.56297481 197631
0.12454002 -0.044224419 0.56348485 197631
0.12575375 -0.044293828 0.56436926 197631
0.12700096 -0.044373829 0.56538856 131839
0.10908764 -0.043945257 0.57310271 131839
0.10978262 -0.043809969 0.57133836 131839
0.11054465 -0.043703701 0.56995249 131839
0.11131676 -0.043603338 0.56864363 197631
0.1121428 -0.043525744 0.56763172 197631
0.11296593 -0.043448437 0.56662351 197631
0.11384058 -0.043392152 0.56588948 197631
0.11471931 -0.043338407 0.56518859 197631
0.11562065 -0.043294076 0.56461048 197631
0.11655222 -0.04326174 0.56418878 197631
0.11748239 -0.04322945 0.56376767 197631
0.11846445 -0.043216646 0.56360066 197631
0.11945062 -0.043205544 0.56345588 197631
0.12046488 -0.043204702 0.56344491 197631
0.12151478 -0.043216553 0.56359947 197631
0.1225749 -0.043231808 0.56379843 197631
0.12370428 -0.043271042 0.56431007 197631
0.12484094 -0.043312162 0.56484634 197631
0.12608051 -0.043388031 0.56583577 197631
0.12737533 -0.04348154 0.56705523 131839
0.10924001 -0.04297119 0.5739032 131839
0.10995669 -0.042846974 0.57224423 131839
0.11071951 -0.042742878 0.57085401 131839
0.11150888 -0.042650864 0.56962508 197631
0.11233602 -0.042574838 0.56860971 197631
0.11316828 -0.042502113 0.56763846 197631
0.11405055 -0.04244931 0.56693321 197631
0.11493062 -0.042396627 0.56622964 197631
0.11584715 -0.042358208 0.56571651 197631
0.11678038 -0.04232651 0.56529319 197631
0.1177218 -0.04229831 0.56491655 197631
0.11871048 -0.042287424 0.56477118 197631
0.1196986 -0.042276528 0.56462562 197631
0.12073116 -0.042281378 0.56469041 197631
0.12178347 -0.042293005 0.56484568 197631
0.12286606 -0.042314868 0.56513768 197631
0.12399838 -0.042353354 0.56565171 197631
0.12516561 -0.042403046 0.56631535 197631
0.12640899 -0.042477515 0.56730992 131839
0.1277519 -0.042583968 0.56873167 131839
0.1101313 -0.041880917 0.57315296 131839
0.1108949 -0.041779011 0.57175833 197631
0.11170169 -0.041695099 0.57060999 197631
0.11252991 -0.041620653 0.56959116 197631
0.11337764 -0.041554701 0.56868857 197631
0.11426128 -0.041502975 0.56798071 197631
0.1151427 -0.041451372 0.56727451 197631
0.11607452 -0.041418664 0.56682688 197631
0.1170094 -0.041387606 0.56640184 197631
0.11796685 -0.041364998 0.56609243 197631
0.1189575 -0.041354325 0.5659464 197631
0.11994762 -0.041343648 0.56580025 197631
0.12099864 -0.041353963 0.56594145 197631
0.12205335 -0.041365363 0.56609744 197631
0.1231586 -0.041393556 0.56648326 197631
0.12429389 -0.0414313 0.56699979 197631
0.12549198 -0.041489188 0.567792 197631
0.12673917 -0.041562237 0.56879175 131839
0.11189515 -0.040736023 0.57159829 197631
0.11272447 -0.040663164 0.57057595 197631
0.11358777 -0.040603772 0.56974256 197631
0.11447278 -0.040553138 0.56903207 197631
0.11536485 -0.040505882 0.56836897 197631
0.1163028 -0.040475424 0.56794161 197631
0.11723934 -0.040445015 0.5675149 197631
0.1182129 -0.040427789 0.5672732 197631
0.11920556 -0.040417336 0.56712651 197631
0.12021077 -0.040411282 0.56704158 197631
0.12126731 -0.040422436 0.5671981 197631
0.12232444 -0.040433601 0.56735474 197631
0.12345254 -0.040467847 0.56783527 197631
0.12459081 -0.040504832 0.56835425 197631
0.12582004 -0.040570546 0.56927633 197631
0.1270884 -0.040647708 0.57035905 131839
0.11291969 -0.039702356 0.57156408 197631
0.11379869 -0.039649315 0.57080048 197631
0.11468508 -0.03959978 0.57008737 197631
0.11559235 -0.039558269 0.56948978 197631
0.11653198 -0.039528467 0.56906074 197631
0.11747018 -0.039498705 0.5686323 197631
0.11846 -0.039486669 0.56845897 197631
0.11945466 -0.039476432 0.56831163 197631
0.12047821 -0.03947584 0.56830311 197631
0.12153718 -0.039486762 0.56846035 197631
0.12260871 -0.039501552 0.56867325 197631
0.12374788 -0.039537705 0.56919372 197631
0.12489936 -0.03957716 0.56976175 197631
0.12614983 -0.039647091 0.57076848 197631
0.11582074 -0.038606912 0.57061499 197631
0.11676204 -0.038577769 0.57018423 197631
0.11771092 -0.03855161 0.56979764 197631
0.11870812 -0.038541596 0.56964964 197631
0.11970479 -0.038531583 0.56950164 197631
0.12074685 -0.038536232 0.5695703 197631
0.12180825 -0.038546912 0.5697282 197631
0.12290248 -0.038567722 0.57003576 197631
0.12404463 -0.038603101 0.57055867 197631
