# .PCD v0.7 - Point Cloud Data file format
VERSION 0.7
FIELDS x y z rgb
SIZE 4 4 4 4
TYPE F F F U
COUNT 1 1 1 1
WIDTH 1150
HEIGHT 1
VIEWPOINT 0 0 0 1 0 0 0
POINTS 1150
DATA ascii
0.12007567 -0.25586805 0.69688481 263423
0.121333 -0.25586805 0.69688481 263423
0.12259033 -0.25586805 0.69688481 263423
0.12384767 -0.25586805 0.69688481 263423
0.12510501 -0.25586805 0.69688481 263423
0.12636235 -0.25586805 0.69688481 263423
0.1276197 -0.25586805 0.69688487 263423
0.12887703 -0.25586805 0.69688487 263423
0.13013437 -0.25586805 0.69688487 263423
0.1313917 -0.25586805 0.69688487 263423
0.20749529 -0.26473537 0.72103596 8454658
0.20749535 -0.26308599 0.71654373 8454658
0.20749539 -0.26145703 0.71210706 8454658
0.20749544 -0.25984815 0.70772505 8454658
0.20749551 -0.25825894 0.70339668 8454658
0.20749557 -0.25668904 0.69912094 8454658
0.2080894 -0.25586823 0.69688535 16712708
0.20934674 -0.25586823 0.69688535 16712708
0.21060407 -0.25586823 0.69688535 16712708
0.21186142 -0.25586823 0.69688535 16712708
0.21311875 -0.25586823 0.69688535 16712708
0.21437611 -0.25586826 0.69688541 16712708
0.21563344 -0.25586826 0.69688541 16712708
0.21689078 -0.25586826 0.69688541 16712708
0.21814811 -0.25586826 0.69688541 16712708
0.21940546 -0.25586826 0.69688541 16712708
0.22066279 -0.25586826 0.69688541 16712708
0.22192015 -0.25586829 0.69688547 16712708
0.22317749 -0.25586829 0.69688547 16712708
0.22443482 -0.25586829 0.69688547 16712708
0.22569217 -0.25586829 0.69688547 16712708
0.2269495 -0.25586829 0.69688547 16712708
0.22820684 -0.25586829 0.69688547 16712708
0.2294642 -0.25586829 0.69688553 16712708
0.23072153 -0.25586829 0.69688553 16712451
0.23197888 -0.25586829 0.69688553 16712451
0.0082929516 -0.25835732 0.70713955 66018
0.0095306383 -0.25732723 0.70432013 131839
0.010774733 -0.25669217 0.70258194 131839
0.012019967 -0.2562151 0.70127612 197631
0.013264983 -0.25582469 0.70020753 197631
0.014512924 -0.25555366 0.69946575 197631
0.015761359 -0.25533399 0.69886452 197631
0.017011993 -0.25517991 0.69844276 197631
0.018265298 -0.25508434 0.69818115 263423
0.019521132 -0.25503415 0.69804382 263423
0.020781573 -0.25504658 0.69807786 263423
0.022045443 -0.25509727 0.69821656 197631
0.023316542 -0.25522161 0.6985569 197631
0.024592051 -0.25537899 0.69898766 197631
0.02587972 -0.25564113 0.69970518 197631
0.027174924 -0.25594985 0.7005502 197631
0.028487546 -0.25638792 0.70174915 197631
0.029823978 -0.25699386 0.70340765 131839
0.031201744 -0.25789198 0.70586586 66047
0.10749523 -0.26385194 0.72217864 65907
0.10749539 -0.26069242 0.71353084 65907
0.10749552 -0.25760758 0.70508748 65907
0.10767343 -0.255016 0.69799417 263423
0.10893276 -0.255016 0.69799417 263423
0.11019211 -0.255016 0.69799417 263423
0.11145144 -0.255016 0.69799417 263423
0.11271079 -0.25501603 0.69799423 263423
0.11397013 -0.25501603 0.69799423 263423
0.11522947 -0.25501603 0.69799423 263423
0.11648881 -0.25501603 0.69799423 263423
0.11774814 -0.25501603 0.69799423 263423
0.11900748 -0.25501603 0.69799423 263423
0.12026683 -0.25501606 0.69799429 263423
0.12152617 -0.25501606 0.69799429 263423
0.12278551 -0.25501606 0.69799429 263423
0.12404484 -0.25501606 0.69799429 263423
0.12530418 -0.25501606 0.69799429 263423
0.12656352 -0.25501606 0.69799429 263423
0.12782288 -0.25501609 0.69799435 263423
0.12908222 -0.25501609 0.69799435 263423
0.13034154 -0.25501609 0.69799435 263423
0.13160089 -0.25501609 0.69799435 263423
0.20749521 -0.2650964 0.72558481 8454658
0.20749529 -0.26343444 0.72103596 8454658
0.20749535 -0.2617932 0.71654373 8454658
0.20749539 -0.26017222 0.71210706 8454658
0.20749544 -0.25857124 0.70772505 8454658
0.20749551 -0.25698984 0.70339668 8454658
0.20749557 -0.25542769 0.69912094 8454658
0.20842069 -0.25501624 0.69799483 16712708
0.20968002 -0.25501624 0.69799483 16712708
0.21093936 -0.25501624 0.69799483 16712708
0.2121987 -0.25501624 0.69799483 16712708
0.21345805 -0.25501624 0.69799483 16712708
0.2147174 -0.25501627 0.69799489 16712708
0.21597674 -0.25501627 0.69799489 16712708
0.21723609 -0.25501627 0.69799489 16712708
0.21849543 -0.25501627 0.69799489 16712708
0.21975476 -0.25501627 0.69799489 16712708
0.2210141 -0.25501627 0.69799489 16712708
0.22227345 -0.2550163 0.69799495 16712708
0.2235328 -0.2550163 0.69799495 16712708
0.22479214 -0.2550163 0.69799495 16712708
0.22605148 -0.2550163 0.69799495 16712451
0.22731082 -0.2550163 0.69799495 16712451
0.22857016 -0.2550163 0.69799495 16712451
0.22982952 -0.25501633 0.69799501 16712451
0.23108886 -0.25501633 0.69799501 16712451
0.2323482 -0.25501633 0.69799501 16712451
0.0083056288 -0.25747448 0.70822054 66020
0.0095454184 -0.25645357 0.70541239 131839
0.010791563 -0.25582352 0.70367938 131839
0.012038838 -0.25535008 0.70237708 197631
0.0132859 -0.25496274 0.70131165 197631
0.014535783 -0.2546922 0.70056748 197631
0.015786299 -0.25447518 0.69997048 197631
0.017038899 -0.25432134 0.69954735 197631
0.01829434 -0.25422823 0.69929129 263423
0.019552164 -0.25417814 0.69915348 263423
0.020814819 -0.2541931 0.69919461 263423
0.022080718 -0.2542437 0.69933379 197631
0.023354147 -0.25437084 0.69968355 197631
0.024631735 -0.25452793 0.70011562 197631
0.025921918 -0.25479349 0.70084608 197631
0.027219851 -0.25510699 0.70170838 197631
0.028534722 -0.25554428 0.70291126 197631
0.02987444 -0.25615743 0.70459783 131839
0.031256553 -0.2570692 0.70710576 66047
0.10749523 -0.26254895 0.72217858 65907
0.10749538 -0.25940502 0.71353078 65907
0.1074955 -0.25633544 0.70508742 65907
0.10784512 -0.2541613 0.69910717 263423
0.10910647 -0.2541613 0.69910717 263423
0.11036781 -0.2541613 0.69910717 263423
0.11162916 -0.2541613 0.69910717 263423
0.11289051 -0.25416133 0.69910723 263423
0.11415186 -0.25416133 0.69910723 263423
0.1154132 -0.25416133 0.69910723 263423
0.11667456 -0.25416133 0.69910723 263423
0.1179359 -0.25416133 0.69910723 263423
0.11919725 -0.25416133 0.69910723 263423
0.1204586 -0.25416136 0.69910729 263423
0.12171995 -0.25416136 0.69910729 263423
0.12298129 -0.25416136 0.69910729 263423
0.12424264 -0.25416136 0.69910729 263423
0.12550399 -0.25416136 0.69910729 263423
0.12676534 -0.25416136 0.69910729 263423
0.12802669 -0.25416136 0.69910735 263423
0.12928805 -0.25416136 0.69910735 263423
0.13054939 -0.25416136 0.69910735 263423
0.13181074 -0.25416136 0.69910735 263423
0.20749521 -0.26378727 0.72558481 8454658
0.20749529 -0.26213354 0.72103596 8454658
0.20749535 -0.2605004 0.71654373 8454658
0.20749539 -0.25888744 0.71210706 8454658
0.20749544 -0.25729436 0.70772505 8454658
0.20749551 -0.25572076 0.70339668 8454658
0.20749557 -0.25416631 0.69912094 8454658
0.20875303 -0.25416154 0.69910783 16712708
0.21001437 -0.25416154 0.69910783 16712708
0.21127573 -0.25416154 0.69910783 16712708
0.21253707 -0.25416154 0.69910783 16712708
0.21379842 -0.25416154 0.69910783 16712708
0.21505979 -0.25416157 0.69910789 16712708
0.21632113 -0.25416157 0.69910789 16712708
0.21758248 -0.25416157 0.69910789 16712708
0.21884383 -0.25416157 0.69910789 16712708
0.22010517 -0.25416157 0.69910789 16712708
0.22136652 -0.25416157 0.69910789 16712451
0.22262789 -0.2541616 0.69910794 16712451
0.22388923 -0.2541616 0.69910794 16712451
0.22515059 -0.2541616 0.69910794 16712451
0.22641194 -0.2541616 0.69910794 16712451
0.22767328 -0.2541616 0.69910794 16712451
0.22893463 -0.2541616 0.69910794 16712451
0.230196 -0.2541616 0.699108 16712451
0.23145734 -0.2541616 0.699108 16712451
0.0083183441 -0.25658894 0.70930481 66021
0.0095602442 -0.25557721 0.70650804 131839
0.010808446 -0.25495216 0.70478022 131839
0.012057767 -0.25448236 0.7034815 197631
0.013306881 -0.25409806 0.70241916 197631
0.014558715 -0.25382802 0.70167267 197631
0.015811322 -0.25361362 0.70107996 197631
0.017065888 -0.25346005 0.70065546 197631
0.018323474 -0.25336939 0.70040488 263423
0.019583296 -0.25331941 0.70026666 263423
0.02084817 -0.25333688 0.70031494 263423
0.022116106 -0.25338739 0.70045459 197631
0.023391871 -0.2535173 0.70081371 197631
0.024671549 -0.25367412 0.70124727 197631
0.025964255 -0.25394309 0.70199072 197631
0.027264928 -0.25426131 0.70287043 197631
0.028582055 -0.25469786 0.70407724 197631
0.029925073 -0.25531816 0.70579201 131839
0.03131156 -0.25624359 0.70835018 66046
0.10749522 -0.26124594 0.72217852 65907
0.10749537 -0.25811765 0.71353072 65907
0.10749549 -0.25506327 0.70508736 65907
0.10801737 -0.25330389 0.7002238 263423
0.10928074 -0.25330389 0.7002238 263423
0.11054409 -0.25330389 0.7002238 263423
0.11180746 -0.25330389 0.7002238 263423
0.11307082 -0.25330392 0.70022386 263423
0.11433419 -0.25330392 0.70022386 263423
0.11559755 -0.25330392 0.70022386 263423
0.11686091 -0.25330392 0.70022386 263423
0.11812427 -0.25330392 0.70022386 263423
0.11938763 -0.25330392 0.70022386 263423
0.12065099 -0.25330392 0.70022386 263423
0.12191436 -0.25330392 0.70022386 263423
0.12317771 -0.25330392 0.70022386 263423
0.12444108 -0.25330392 0.70022386 263423
0.12570444 -0.25330392 0.70022386 263423
0.1269678 -0.25330392 0.70022386 263423
0.12823117 -0.25330395 0.70022392 263423
0.12949453 -0.25330395 0.70022392 263423
0.1307579 -0.25330395 0.70022392 263423
0.13202125 -0.25330395 0.70022392 263423
0.20749518 -0.26247814 0.72558475 8454658
0.20749527 -0.26083261 0.7210359 8454658
0.20749533 -0.25920755 0.71654367 8454658
0.20749536 -0.2576026 0.712107 8454658
0.20749542 -0.25601742 0.70772499 8454658
0.20749548 -0.25445166 0.70339662 8454658
0.20782305 -0.25330409 0.70022434 16712708
0.20908643 -0.25330412 0.7002244 16712708
0.2103498 -0.25330412 0.7002244 16712708
0.21161316 -0.25330412 0.7002244 16712708
0.21287653 -0.25330412 0.7002244 16712708
0.21413988 -0.25330412 0.7002244 16712708
0.21540326 -0.25330412 0.70022446 16712451
0.21666662 -0.25330412 0.70022446 16712451
0.21792999 -0.25330412 0.70022446 16712451
0.21919335 -0.25330412 0.70022446 16712451
0.22045672 -0.25330412 0.70022446 16712451
0.22172007 -0.25330412 0.70022446 16712451
0.22298346 -0.25330415 0.70022452 16712451
0.22424681 -0.25330415 0.70022452 16712451
0.22551018 -0.25330415 0.70022452 16712451
0.22677355 -0.25330415 0.70022452 16712451
0.22803691 -0.25330415 0.70022452 16712451
0.22930028 -0.25330415 0.70022452 16712451
0.23056366 -0.25330418 0.70022458 16712451
0.23182702 -0.25330418 0.70022458 16712451
0.0083310986 -0.25570062 0.71039236 66022
0.0095751155 -0.25469807 0.70760703 131839
0.010825383 -0.25407812 0.70588464 131839
0.012076757 -0.25361189 0.70458937 197631
0.013327928 -0.25323063 0.70353019 197631
0.014581718 -0.25296113 0.70278138 197631
0.015836421 -0.25274929 0.7021929 197631
0.017092964 -0.25259602 0.70176709 197631
0.0183527 -0.25250787 0.70152211 263423
0.019614523 -0.25245792 0.70138335 263423
0.020881632 -0.25247791 0.70143896 263423
0.022151608 -0.25252834 0.70157903 197631
0.02342972 -0.25266105 0.70194769 197631
0.024711492 -0.25281757 0.70238256 197631
0.026006728 -0.25308987 0.70313907 197631
0.027310153 -0.25341281 0.7040363 197631
0.028629547 -0.25384867 0.70524716 131839
0.029975882 -0.2544761 0.70699036 131839
0.031366754 -0.25541499 0.70959878 66042
0.10749522 -0.25994298 0.72217852 65907
0.10749537 -0.25683028 0.71353072 65907
0.10749549 -0.25379112 0.70508736 65907
0.10819016 -0.2524437 0.70134389 263423
0.10945554 -0.2524437 0.70134389 263423
0.11072093 -0.2524437 0.70134389 263423
0.1119863 -0.2524437 0.70134389 263423
0.11325169 -0.25244373 0.70134395 263423
0.11451708 -0.25244373 0.70134395 263423
0.11578246 -0.25244373 0.70134395 263423
0.11704784 -0.25244373 0.70134395 263423
0.11831322 -0.25244373 0.70134395 263423
0.11957861 -0.25244373 0.70134395 263423
0.120844 -0.25244376 0.70134401 263423
0.12210938 -0.25244376 0.70134401 263423
0.12337476 -0.25244376 0.70134401 263423
0.12464014 -0.25244376 0.70134401 263423
0.12590553 -0.25244376 0.70134401 263423
0.12717091 -0.25244376 0.70134401 263423
0.1284363 -0.25244376 0.70134407 263423
0.12970169 -0.25244376 0.70134407 263423
0.13096707 -0.25244376 0.70134407 263423
0.13223244 -0.25244376 0.70134407 263423
0.20749518 -0.26116902 0.72558475 8454658
0.20749527 -0.25953171 0.7210359 8454658
0.20749533 -0.25791475 0.71654367 8454658
0.20749536 -0.25631779 0.712107 8454658
0.20749542 -0.25474054 0.70772499 8454658
0.20749548 -0.25318256 0.70339662 8454658
0.20815551 -0.25244391 0.70134449 16712708
0.20942093 -0.25244397 0.70134461 16712708
0.21068631 -0.25244397 0.70134461 16712451
0.2119517 -0.25244397 0.70134461 16712451
0.21321706 -0.25244394 0.70134455 16712451
0.21448244 -0.25244394 0.70134455 16712451
0.21574785 -0.25244397 0.70134461 16712451
0.21701322 -0.25244397 0.70134461 16712451
0.21827862 -0.25244397 0.70134461 16712451
0.21954399 -0.25244397 0.70134461 16712451
0.22080939 -0.25244397 0.70134461 16712451
0.22207476 -0.25244397 0.70134461 16712451
0.22334017 -0.25244397 0.70134467 16712451
0.22460555 -0.25244397 0.70134467 16712451
0.22587094 -0.25244397 0.70134467 16712451
0.22713631 -0.25244397 0.70134467 16712451
0.22840171 -0.25244397 0.70134467 16712451
0.22966708 -0.25244397 0.70134467 16712451
0.23093249 -0.252444 0.70134473 16712451
0.23219787 -0.252444 0.70134473 16712451
0.0083438931 -0.25480965 0.71148336 66023
0.0095900334 -0.25381622 0.70870948 131839
0.010842372 -0.25320128 0.70699239 131839
0.012095806 -0.25273868 0.70570076 197631
0.013349044 -0.25236049 0.7046448 197631
0.014604794 -0.25209144 0.70389354 197631
0.015861603 -0.25188226 0.70330942 197631
0.017120127 -0.25172928 0.70288229 197631
0.01838202 -0.25164354 0.70264286 263423
0.019645855 -0.25159368 0.70250368 263423
0.020915199 -0.25161618 0.7025665 263423
0.022187226 -0.25166652 0.70270705 197631
0.02346769 -0.25180197 0.70308524 197631
0.024751566 -0.25195825 0.70352161 197631
0.02604934 -0.25223386 0.70429116 197631
0.027355528 -0.25256151 0.70520604 197631
0.028677197 -0.25299662 0.70642096 131839
0.030026857 -0.25363111 0.70819259 131839
0.031422142 -0.25458348 0.71085185 66039
0.1074952 -0.25863999 0.72217846 65907
0.10749537 -0.25554287 0.71353066 65907
0.10749549 -0.25251898 0.7050873 65907
0.10836351 -0.25158077 0.70246762 263423
0.10963091 -0.25158077 0.70246762 263423
0.11089832 -0.25158077 0.70246762 263423
0.11216573 -0.25158077 0.70246762 263423
0.11343315 -0.2515808 0.70246768 263423
0.11470056 -0.2515808 0.70246768 263423
0.11596797 -0.2515808 0.70246768 263423
0.11723538 -0.2515808 0.70246768 263423
0.11850279 -0.2515808 0.70246768 263423
0.1197702 -0.2515808 0.70246768 263423
0.12103762 -0.2515808 0.70246774 263423
0.12230503 -0.2515808 0.70246774 263423
0.12357244 -0.2515808 0.70246774 263423
0.12483985 -0.2515808 0.70246774 263423
0.12610726 -0.2515808 0.70246774 263423
0.12737466 -0.2515808 0.70246774 263423
0.12864208 -0.25158083 0.7024678 263423
0.1299095 -0.25158083 0.7024678 263423
0.1311769 -0.25158083 0.7024678 263423
0.13244432 -0.25158083 0.7024678 263423
0.20749511 -0.26150972 0.73019135 8454658
0.20749518 -0.25985992 0.72558475 8454658
0.20749527 -0.25823078 0.7210359 8454658
0.20749533 -0.25662196 0.71654367 8454658
0.20749536 -0.25503302 0.712107 8454658
0.20749542 -0.25346363 0.70772499 8454658
0.20749548 -0.25191349 0.70339662 8454658
0.20848903 -0.25158098 0.70246822 16712451
0.20975645 -0.25158101 0.70246828 16712451
0.21102387 -0.25158101 0.70246828 16712451
0.21229127 -0.25158101 0.70246828 16712451
0.21355869 -0.25158101 0.70246828 16712451
0.21482609 -0.25158101 0.70246828 16712451
0.21609353 -0.25158101 0.70246834 16712451
0.21736094 -0.25158101 0.70246834 16712451
0.21862835 -0.25158101 0.70246834 16712451
0.21989577 -0.25158101 0.70246834 16712451
0.22116317 -0.25158101 0.70246834 16712451
0.22243059 -0.25158101 0.70246834 16712451
0.22369801 -0.25158104 0.7024684 16712451
0.22496542 -0.25158104 0.7024684 16712451
0.22623283 -0.25158104 0.7024684 16712451
0.22750024 -0.25158104 0.7024684 16712451
0.22876765 -0.25158104 0.7024684 16712451
0.23003507 -0.25158104 0.7024684 16712451
0.2313025 -0.25158107 0.70246845 16712451
0.0083567258 -0.25391591 0.71257764 66024
0.0096050231 -0.25293228 0.70981723 131839
0.010859414 -0.25232166 0.70810366 131839
0.012114916 -0.2518627 0.70681566 197631
0.013370225 -0.25148758 0.70576286 197631
0.014627945 -0.25121903 0.70500928 197631
0.015886864 -0.25101244 0.70442951 197631
0.017147375 -0.25085977 0.70400101 197631
0.018411437 -0.25077647 0.70376724 263423
0.019677285 -0.2507267 0.70362759 263423
0.020948874 -0.25075167 0.70369768 263423
0.022222955 -0.25080192 0.70383871 197631
0.023505785 -0.25094014 0.70422655 197631
0.024791874 -0.2510972 0.70466733 197631
0.026092093 -0.25137505 0.70544708 197631
0.027401056 -0.25170738 0.70637971 197631
0.028725006 -0.25214171 0.70759863 131839
0.030078011 -0.2527833 0.7093991 131839
0.031477731 -0.25374904 0.71210939 66036
0.10749507 -0.2604942 0.73103863 65907
0.1074952 -0.257337 0.72217846 65907
0.10749537 -0.2542555 0.71353066 65907
0.10749549 -0.25124684 0.7050873 65907
0.10853741 -0.25071505 0.70359492 263423
0.10980685 -0.25071505 0.70359492 263423
0.1110763 -0.25071505 0.70359492 263423
0.11234573 -0.25071505 0.70359492 263423
0.11361519 -0.25071508 0.70359498 263423
0.11488463 -0.25071508 0.70359498 263423
0.11615407 -0.25071508 0.70359498 263423
0.11742352 -0.25071508 0.70359498 263423
0.11869296 -0.25071508 0.70359498 263423
0.1199624 -0.25071508 0.70359498 263423
0.12123186 -0.25071511 0.70359504 263423
0.1225013 -0.25071511 0.70359504 263423
0.12377074 -0.25071511 0.70359504 263423
0.12504019 -0.25071511 0.70359504 263423
0.12630963 -0.25071511 0.70359504 263423
0.12757908 -0.25071511 0.70359504 263423
0.12884854 -0.25071514 0.7035951 263423
0.13011797 -0.25071514 0.7035951 263423
0.13138741 -0.25071514 0.7035951 263423
0.20749508 -0.26019225 0.73019123 8454658
0.20749517 -0.25855076 0.72558469 8454658
0.20749526 -0.25692984 0.72103584 8454658
0.20749532 -0.25532913 0.71654361 8454658
0.20749535 -0.25374818 0.71210694 8454658
0.20749541 -0.25218672 0.70772493 8454658
0.20755418 -0.25071529 0.70359558 16712451
0.20882362 -0.25071529 0.70359558 16712451
0.21009308 -0.25071532 0.70359564 16712451
0.21136253 -0.25071532 0.70359564 16712451
0.21263197 -0.25071532 0.70359564 16712451
0.2139014 -0.25071529 0.70359558 16712451
0.21517085 -0.25071529 0.70359558 16712451
0.21644031 -0.25071532 0.70359564 16712451
0.21770975 -0.25071532 0.70359564 16712451
0.21897919 -0.25071532 0.70359564 16712451
0.22024864 -0.25071532 0.70359564 16712451
0.22151808 -0.25071532 0.70359564 16712451
0.22278753 -0.25071532 0.70359564 16712451
0.22405699 -0.25071535 0.7035957 16712451
0.22532643 -0.25071535 0.7035957 16712451
0.22659588 -0.25071535 0.7035957 16712451
0.22786532 -0.25071535 0.7035957 16712451
0.22913477 -0.25071535 0.7035957 16712451
0.23040421 -0.25071535 0.7035957 16712451
0.23167369 -0.25071535 0.70359576 16712451
0.0083695995 -0.25301942 0.71367532 66025
0.0096201813 -0.25204876 0.71093744 131839
0.01087651 -0.25143933 0.70921844 131839
0.012134085 -0.25098398 0.70793408 197631
0.013391475 -0.2506119 0.70688456 197631
0.014651167 -0.25034386 0.70612854 197631
0.015912205 -0.25013986 0.70555317 197631
0.017174711 -0.24998747 0.70512331 197631
0.018440945 -0.2499066 0.7048952 263423
0.019708818 -0.24985695 0.70475513 263423
0.02098266 -0.24988441 0.70483261 263423
0.022258803 -0.24993455 0.70497406 197631
0.023544002 -0.25007549 0.70537156 197631
0.024832584 -0.25023603 0.70582443 197631
0.026134985 -0.2505134 0.70660675 197631
0.027446734 -0.25085038 0.70755726 197631
0.028772974 -0.25128397 0.70878029 131839
0.030129336 -0.25193253 0.71060961 131839
0.031533509 -0.25291163 0.71337128 66033
0.10749505 -0.25917518 0.73103851 65907
0.10749519 -0.25603399 0.72217834 65907
0.10749535 -0.2529681 0.7135306 65907
0.10749548 -0.24997468 0.70508724 65907
0.10871188 -0.24984659 0.70472592 263423
0.10998335 -0.24984659 0.70472592 263423
0.11125484 -0.24984659 0.70472592 263423
0.11252633 -0.24984659 0.70472592 263423
0.11379781 -0.24984659 0.70472592 263423
0.1150693 -0.24984661 0.70472598 263423
0.11634079 -0.24984661 0.70472598 263423
0.11761227 -0.24984661 0.70472598 263423
0.11888376 -0.24984661 0.70472598 263423
0.12015524 -0.24984661 0.70472598 263423
0.12142673 -0.24984664 0.70472604 263423
0.12269822 -0.24984664 0.70472604 263423
0.1239697 -0.24984664 0.70472604 263423
0.12524119 -0.24984664 0.70472604 263423
0.12651268 -0.24984664 0.70472604 263423
0.12778415 -0.24984664 0.70472604 263423
0.12905565 -0.24984665 0.7047261 263423
0.13032714 -0.24984665 0.7047261 263423
0.13159862 -0.24984665 0.7047261 263423
0.20749508 -0.2588748 0.73019123 8454658
0.20749517 -0.25724164 0.72558469 8454658
0.20749526 -0.25562894 0.72103584 8454658
0.20749532 -0.25403631 0.71654361 8454658
0.20749535 -0.25246337 0.71210694 8454658
0.20749541 -0.25090984 0.70772493 8454658
0.2078878 -0.2498468 0.70472652 16712451
0.20915928 -0.2498468 0.70472652 16712451
0.21043079 -0.24984682 0.70472658 16712451
0.21170227 -0.24984682 0.70472658 16712451
0.21297376 -0.24984682 0.70472658 16712451
0.21424524 -0.24984682 0.70472658 16712451
0.21551672 -0.24984682 0.70472658 16712451
0.21678823 -0.24984685 0.70472664 16712451
0.21805972 -0.24984685 0.70472664 16712451
0.21933119 -0.24984685 0.70472664 16712451
0.22060268 -0.24984685 0.70472664 16712451
0.22187416 -0.24984685 0.70472664 16712451
0.22314565 -0.24984685 0.70472664 16712451
0.22441715 -0.24984686 0.7047267 16712451
0.22568864 -0.24984686 0.7047267 16712451
0.22696012 -0.24984686 0.7047267 16712451
0.22823161 -0.24984686 0.7047267 16712451
0.2295031 -0.24984686 0.7047267 16712451
0.23077458 -0.24984686 0.7047267 16712451
0.23204608 -0.24984689 0.70472676 16712451
0.0083825113 -0.25212014 0.71477634 66027
0.009635387 -0.25116241 0.71206111 131839
0.010893661 -0.25055417 0.71033674 131839
0.012153315 -0.25010243 0.70905602 197631
0.013412791 -0.2497334 0.70800978 197631
0.014674464 -0.2494659 0.70725137 197631
0.015937628 -0.24926451 0.70668042 197631
0.017202135 -0.2491124 0.70624918 197631
0.018470548 -0.24903393 0.70602673 263423
0.019740449 -0.24898438 0.70588624 263423
0.021016551 -0.2490143 0.70597106 263423
0.022294763 -0.24906436 0.70611298 197631
0.023582345 -0.24920802 0.70652026 197631
0.02487343 -0.24937208 0.70698541 197631
0.026178021 -0.24964893 0.70777029 197631
0.027492564 -0.24999054 0.70873874 197631
0.028821105 -0.25042337 0.70996588 131839
0.03018084 -0.2510789 0.71182436 131839
0.031593356 -0.25210208 0.71472514 66028
0.10749505 -0.25785625 0.73103851 65907
0.10749519 -0.25473103 0.72217834 65907
0.10749535 -0.25168073 0.7135306 65907
0.10761336 -0.24897529 0.7058605 263423
0.1088869 -0.24897529 0.7058605 263423
0.11016043 -0.24897529 0.7058605 263423
0.11143396 -0.24897529 0.7058605 263423
0.11270749 -0.24897529 0.7058605 263423
0.11398102 -0.24897529 0.7058605 263423
0.11525456 -0.24897532 0.70586056 263423
0.11652809 -0.24897532 0.70586056 263423
0.11780162 -0.24897532 0.70586056 263423
0.11907515 -0.24897532 0.70586056 263423
0.12034868 -0.24897532 0.70586056 263423
0.12162223 -0.24897534 0.70586061 263423
0.12289575 -0.24897534 0.70586061 263423
0.12416929 -0.24897534 0.70586061 263423
0.12544282 -0.24897534 0.70586061 263423
0.12671635 -0.24897534 0.70586061 263423
0.12798987 -0.24897534 0.70586061 263423
0.12926342 -0.24897537 0.70586067 263423
0.13053696 -0.24897537 0.70586067 263423
0.13181049 -0.24897537 0.70586067 263423
0.20749508 -0.25755739 0.73019123 8454658
0.20749517 -0.25593254 0.72558469 8454658
0.20749526 -0.25432804 0.72103584 8454658
0.20749527 -0.25274348 0.7165435 8454658
0.20749533 -0.25117856 0.71210688 8454658
0.20749539 -0.24963291 0.70772487 8454658
0.20822251 -0.24897553 0.70586115 16712451
0.20949604 -0.24897553 0.70586115 16712451
0.21076958 -0.24897555 0.70586121 16712451
0.21204312 -0.24897555 0.70586121 16712451
0.21331665 -0.24897555 0.70586121 16712451
0.21459018 -0.24897555 0.70586121 16712451
0.21586372 -0.24897555 0.70586121 16712451
0.21713726 -0.24897557 0.70586127 16712451
0.21841079 -0.24897557 0.70586127 16712451
0.21968433 -0.24897557 0.70586127 16712451
0.22095786 -0.24897557 0.70586127 16712451
0.22223139 -0.24897557 0.70586127 16712451
0.22350493 -0.24897557 0.70586127 16712451
0.22477847 -0.24897559 0.70586133 16712451
0.226052 -0.24897559 0.70586133 16712451
0.22732554 -0.24897559 0.70586133 16712451
0.22859907 -0.24897559 0.70586133 16712451
0.2298726 -0.24897559 0.70586133 16712451
0.23114614 -0.24897559 0.70586133 16712451
0.23241968 -0.24897562 0.70586139 16712451
0.0083954651 -0.25121814 0.71588087 66028
0.0096506402 -0.25027326 0.71318835 131839
0.010910863 -0.24966623 0.7114585 131839
0.012172608 -0.24921814 0.71018159 197631
0.013434176 -0.24885212 0.70913857 197631
0.014697836 -0.24858513 0.70837778 197631
0.015963132 -0.24838632 0.70781124 197631
0.017229645 -0.24823451 0.70737863 197631
0.018500244 -0.24815845 0.7071619 263423
0.019772185 -0.24810903 0.70702106 263423
0.021050556 -0.24814139 0.70711327 263423
0.022330843 -0.24819136 0.70725566 197631
0.02362081 -0.24833772 0.70767272 197631
0.024914408 -0.24850525 0.70815015 197631
0.026221197 -0.24878161 0.70893764 197631
0.027538551 -0.24912782 0.70992422 197631
0.028870059 -0.24956562 0.71117181 131839
0.030232521 -0.25022236 0.71304327 131839
0.031654321 -0.25129655 0.71610433 66022
0.10749505 -0.25653726 0.73103845 65907
0.10749518 -0.25342804 0.72217828 65907
0.10749535 -0.25039336 0.71353054 65907
0.10778691 -0.24810123 0.70699883 263423
0.10906249 -0.24810123 0.70699883 263423
0.11033808 -0.24810123 0.70699883 263423
0.11161366 -0.24810123 0.70699883 263423
0.11288925 -0.24810123 0.70699883 263423
0.11416484 -0.24810123 0.70699883 263423
0.11544042 -0.24810123 0.70699883 263423
0.11671601 -0.24810125 0.70699888 263423
0.1179916 -0.24810125 0.70699888 263423
0.11926718 -0.24810125 0.70699888 263423
0.12054276 -0.24810125 0.70699888 263423
0.12181836 -0.24810128 0.70699894 263423
0.12309395 -0.24810128 0.70699894 263423
0.12436953 -0.24810128 0.70699894 263423
0.12564512 -0.24810128 0.70699894 263423
0.1269207 -0.24810128 0.70699894 263423
0.12819628 -0.24810128 0.70699894 263423
0.12947188 -0.24810129 0.706999 263423
0.13074747 -0.24810129 0.706999 263423
0.13202305 -0.24810129 0.706999 263423
0.207495 -0.25787717 0.73485672 8454658
0.20749506 -0.25623992 0.73019117 8454658
0.20749515 -0.25462338 0.72558463 8454658
0.20749523 -0.25302711 0.72103578 8454658
0.20749527 -0.25145066 0.7165435 8454658
0.20749533 -0.24989375 0.71210688 8454658
0.20749539 -0.24835601 0.70772487 8454658
0.20855828 -0.24810144 0.70699942 16712451
0.20983386 -0.24810144 0.70699942 16712451
0.21110947 -0.24810146 0.70699948 16712451
0.21238506 -0.24810146 0.70699948 16712451
0.21366064 -0.24810146 0.70699948 16712451
0.21493623 -0.24810146 0.70699948 16712451
0.21621181 -0.24810146 0.70699948 16712451
0.21748742 -0.24810149 0.70699954 16712451
0.21876301 -0.24810149 0.70699954 16712451
0.22003859 -0.24810149 0.70699954 16712451
0.22131418 -0.24810149 0.70699954 16712451
0.22258976 -0.24810149 0.70699954 16712451
0.22386535 -0.24810149 0.70699954 16712451
0.22514096 -0.2481015 0.7069996 16712451
0.22641654 -0.2481015 0.7069996 16712451
0.22769213 -0.2481015 0.7069996 16712451
0.22896771 -0.2481015 0.7069996 16712451
0.2302433 -0.2481015 0.7069996 16712451
0.23151888 -0.2481015 0.7069996 16712451
0.0084084561 -0.25031328 0.71698868 66029
0.0096659428 -0.24938133 0.71431923 131839
0.010928122 -0.2487755 0.7125839 131839
0.012191961 -0.248331 0.71131068 197631
0.013455629 -0.24796802 0.710271 197631
0.014721282 -0.24770156 0.70950776 197631
0.015988717 -0.24750534 0.70894569 197631
0.017257243 -0.24735382 0.70851171 197631
0.018530039 -0.24728018 0.70830077 263423
0.019804021 -0.24723084 0.70815945 263423
0.02108467 -0.24726568 0.70825922 263423
0.022367038 -0.24731553 0.70840204 197631
0.023659404 -0.24746458 0.70882899 197631
0.024955522 -0.24763557 0.70931876 197631
0.026264515 -0.24791139 0.71010882 197631
0.027584689 -0.2482622 0.71111363 197631
0.028919449 -0.24870726 0.71238846 131839
0.030284375 -0.24936283 0.71426624 131839
0.031715527 -0.25048792 0.71748894 66016
0.10749504 -0.25521827 0.73103839 65907
0.10749517 -0.25212502 0.72217822 65907
0.10749535 -0.24910599 0.71353054 65907
0.10796101 -0.24722433 0.70814079 263423
0.10923865 -0.24722433 0.70814079 263423
0.1105163 -0.24722433 0.70814079 263423
0.11179394 -0.24722433 0.70814079 263423
0.11307159 -0.24722433 0.70814079 263423
0.11434924 -0.24722433 0.70814079 263423
0.11562688 -0.24722433 0.70814079 263423
0.11690453 -0.24722435 0.70814085 263423
0.11818218 -0.24722435 0.70814085 263423
0.11945983 -0.24722435 0.70814085 263423
0.12073747 -0.24722435 0.70814085 263423
0.12201513 -0.24722438 0.70814091 263423
0.12329277 -0.24722438 0.70814091 263423
0.12457042 -0.24722438 0.70814091 263423
0.12584807 -0.24722438 0.70814091 263423
0.12712571 -0.24722438 0.70814091 263423
0.12840335 -0.24722438 0.70814091 263423
0.12968101 -0.24722439 0.70814097 263423
0.13095866 -0.24722439 0.70814097 263423
0.1322363 -0.24722439 0.70814097 263423
0.207495 -0.25655133 0.73485672 8454658
0.20749506 -0.25492251 0.73019117 8454658
0.20749515 -0.25331429 0.72558463 8454658
0.20749523 -0.25172618 0.72103578 8454658
0.20749527 -0.25015786 0.7165435 8454658
0.20749533 -0.24860896 0.71210688 8454658
0.20761751 -0.24722454 0.70814139 16712451
0.20889515 -0.24722454 0.70814139 16712451
0.2101728 -0.24722454 0.70814139 16712451
0.21145046 -0.24722455 0.70814145 16712451
0.21272811 -0.24722455 0.70814145 16712451
0.21400575 -0.24722455 0.70814145 16712451
0.21528339 -0.24722455 0.70814145 16712451
0.21656105 -0.24722455 0.70814145 16712451
0.2178387 -0.24722457 0.70814151 16712451
0.21911636 -0.24722457 0.70814151 16712451
0.220394 -0.24722457 0.70814151 16712451
0.22167166 -0.24722457 0.70814151 16712451
0.2229493 -0.24722457 0.70814151 16712451
0.22422694 -0.24722457 0.70814151 16712451
0.22550461 -0.2472246 0.70814157 16712451
0.22678225 -0.2472246 0.70814157 16712451
0.2280599 -0.2472246 0.70814157 16712451
0.22933754 -0.2472246 0.70814157 16712451
0.2306152 -0.2472246 0.70814157 16712451
0.23189284 -0.2472246 0.70814157 16712451
0.00842149 -0.24940565 0.71810001 66030
0.0096812937 -0.24848655 0.71545368 131839
0.010945436 -0.24788192 0.71371281 131839
0.012211376 -0.24744104 0.71244341 197631
0.013477152 -0.24708112 0.71140712 197631
0.014744801 -0.24681515 0.71064132 197631
0.016014384 -0.24662153 0.71008384 197631
0.01728493 -0.2464703 0.70964843 197631
0.018559931 -0.24639909 0.70944339 263423
0.019835958 -0.2463498 0.70930147 263423
0.021118892 -0.24638708 0.70940882 263423
0.02240335 -0.24643685 0.70955211 197631
0.023698125 -0.24658859 0.70998901 197631
0.024996774 -0.24676302 0.71049124 197631
0.026307978 -0.24703833 0.71128392 197631
0.027630981 -0.24739367 0.71230704 197631
0.028969008 -0.24784596 0.71360928 131839
0.030336412 -0.24850039 0.71549356 131839
0.031776965 -0.24967615 0.71887887 66010
0.10749504 -0.25389934 0.73103839 65907
0.1074952 -0.25082216 0.72217846 65907
0.10749534 -0.24781859 0.71353048 65907
0.10813566 -0.24634457 0.70928639 263423
0.10941537 -0.24634457 0.70928639 263423
0.11069509 -0.24634457 0.70928639 263423
0.11197481 -0.24634457 0.70928639 263423
0.11325452 -0.24634457 0.70928639 263423
0.11453423 -0.24634457 0.70928639 263423
0.11581394 -0.24634457 0.70928639 263423
0.11709365 -0.24634457 0.70928639 263423
0.11837337 -0.24634458 0.70928645 263423
0.11965308 -0.24634458 0.70928645 263423
0.1209328 -0.24634458 0.70928645 263423
0.12221252 -0.24634461 0.70928651 263423
0.12349223 -0.24634461 0.70928651 263423
0.12477195 -0.24634461 0.70928651 263423
0.12605165 -0.24634461 0.70928651 263423
0.12733136 -0.24634461 0.70928651 263423
0.12861107 -0.24634461 0.70928651 263423
0.1298908 -0.24634463 0.70928657 263423
0.13117051 -0.24634463 0.70928657 263423
0.13245022 -0.24634463 0.70928657 263423
0.207495 -0.25522548 0.73485672 8454658
0.20749506 -0.25360507 0.73019117 8454658
0.20749515 -0.25200516 0.72558463 8454658
0.20749521 -0.25042525 0.72103572 8454658
0.20749526 -0.24886504 0.71654344 8454658
0.20749532 -0.24732414 0.71210682 8454658
0.20795338 -0.24634477 0.70928699 16712451
0.20923309 -0.24634477 0.70928699 16712451
0.2105128 -0.24634477 0.70928699 16712451
0.21179253 -0.24634479 0.70928705 16712451
0.21307226 -0.24634479 0.70928705 16712451
0.21435197 -0.24634479 0.70928705 16712451
0.21563168 -0.24634479 0.70928705 16712451
0.21691139 -0.24634479 0.70928705 16712451
0.21819112 -0.24634482 0.70928711 16712451
0.21947083 -0.24634482 0.70928711 16712451
0.22075054 -0.24634482 0.70928711 16712451
0.22203027 -0.24634482 0.70928711 16712451
0.22330998 -0.24634482 0.70928711 16712451
0.22458969 -0.24634482 0.70928711 16712451
0.22586942 -0.24634483 0.70928717 16712451
0.22714913 -0.24634483 0.70928717 16712451
0.22842884 -0.24634483 0.70928717 16712451
0.22970855 -0.24634483 0.70928717 16712451
0.23098828 -0.24634483 0.70928717 16712451
0.23226799 -0.24634483 0.70928717 16712451
0.008434562 -0.24849519 0.71921474 66031
0.0096966941 -0.24758893 0.71659178 131839
0.010962804 -0.24698552 0.71484536 131839
0.012230854 -0.24654828 0.71357983 197631
0.013498742 -0.24619134 0.71254677 197631
0.014768397 -0.24592593 0.71177858 197631
0.016040135 -0.24573487 0.71122563 197631
0.017312706 -0.24558394 0.71078879 197631
0.018589918 -0.24551512 0.71058959 263423
0.019868001 -0.24546596 0.71044731 263423
0.021153228 -0.24550565 0.71056217 263423
0.022439813 -0.24555567 0.71070695 197631
0.02373697 -0.24570973 0.71115285 197631
0.02503816 -0.24588758 0.7116676 197631
0.026351584 -0.24616237 0.7124629 197631
0.02767743 -0.24652222 0.71350443 197631
0.029018737 -0.2469817 0.71483427 131839
0.030388623 -0.24763496 0.71672499 131839
0.031838644 -0.24886124 0.72027421 66004
0.10749503 -0.25258034 0.73103833 65907
0.10749519 -0.24951914 0.72217834 65907
0.10749533 -0.2465312 0.71353042 65907
0.10831089 -0.24546197 0.71043575 263423
0.10959268 -0.24546197 0.71043575 263423
0.11087447 -0.24546197 0.71043575 263423
0.11215625 -0.24546197 0.71043575 263423
0.11343803 -0.24546197 0.71043575 263423
0.11471982 -0.24546197 0.71043575 263423
0.11600161 -0.24546197 0.71043575 263423
0.1172834 -0.24546197 0.71043575 263423
0.11856519 -0.24546199 0.71043581 263423
0.11984698 -0.24546199 0.71043581 263423
0.12112876 -0.24546199 0.71043581 263423
0.12241056 -0.245462 0.71043587 263423
0.12369234 -0.245462 0.71043587 263423
0.12497413 -0.245462 0.71043587 263423
0.12625591 -0.245462 0.71043587 263423
0.1275377 -0.245462 0.71043587 263423
0.12881948 -0.245462 0.71043587 263423
0.13010128 -0.24546203 0.71043593 263423
0.13138308 -0.24546203 0.71043593 263423
0.20749499 -0.2538996 0.73485667 8454658
0.20749505 -0.25228763 0.73019111 8454658
0.20749514 -0.25069603 0.72558457 8454658
0.20749521 -0.24912435 0.72103572 8454658
0.20749526 -0.24757223 0.71654344 8454658
0.20749532 -0.24603933 0.71210682 8454658
0.20829035 -0.24546216 0.71043634 16712451
0.20957214 -0.24546216 0.71043634 16712451
0.21085393 -0.24546216 0.71043634 16712451
0.21213573 -0.24546219 0.7104364 16712451
0.21341752 -0.24546219 0.7104364 16712451
0.21469931 -0.24546219 0.7104364 16712451
0.2159811 -0.24546219 0.7104364 16712451
0.21726288 -0.24546219 0.7104364 16712451
0.21854469 -0.24546221 0.71043646 16712451
0.21982647 -0.24546221 0.71043646 16712451
0.22110826 -0.24546221 0.71043646 16712451
0.22239004 -0.24546221 0.71043646 16712451
0.22367184 -0.24546221 0.71043646 16712451
0.22495362 -0.24546221 0.71043646 16712451
0.22623542 -0.24546224 0.71043652 16712451
0.22751722 -0.24546224 0.71043652 16712451
0.228799 -0.24546224 0.71043652 16712451
0.23008078 -0.24546224 0.71043652 16712451
0.23136258 -0.24546224 0.71043652 16712451
0.0084476909 -0.24758233 0.72033423 66033
0.0097121419 -0.24668841 0.71773338 131839
0.010980227 -0.24608625 0.71598142 131839
0.012250393 -0.24565262 0.71471977 197631
0.013520402 -0.24529871 0.7136901 197631
0.01479207 -0.24503385 0.71291947 197631
0.016065968 -0.24484535 0.71237105 197631
0.017340573 -0.24469474 0.71193284 197631
0.018620001 -0.2446283 0.71173954 263423
0.019900147 -0.24457924 0.71159679 263423
0.021187676 -0.24462135 0.71171933 197631
0.022476636 -0.24467424 0.71187317 197631
0.023775946 -0.24482799 0.71232051 197631
0.025079684 -0.24500923 0.71284783 197631
0.026395338 -0.2452835 0.71364582 197631
0.027724035 -0.24564785 0.71470588 197631
0.029068638 -0.24611446 0.7160635 131839
0.030442812 -0.2467811 0.71800303 131839
0.031900566 -0.24804318 0.72167504 65998
0.10749503 -0.25126138 0.73103833 65907
0.10749519 -0.24821617 0.72217834 65907
0.10749533 -0.24524383 0.71353042 65907
0.10848668 -0.24457648 0.7115888 263423
0.10977055 -0.24457648 0.7115888 263423
0.11105441 -0.24457648 0.7115888 263423
0.11233828 -0.24457648 0.7115888 263423
0.11362215 -0.24457648 0.7115888 263423
0.11490601 -0.24457648 0.7115888 263423
0.11618988 -0.24457648 0.7115888 263423
0.11747374 -0.24457648 0.7115888 263423
0.11875762 -0.24457651 0.71158886 263423
0.12004149 -0.24457651 0.71158886 263423
0.12132536 -0.24457651 0.71158886 263423
0.12260923 -0.24457653 0.71158892 263423
0.1238931 -0.24457653 0.71158892 263423
0.12517697 -0.24457653 0.71158892 263423
0.12646084 -0.24457653 0.71158892 263423
0.12774469 -0.24457653 0.71158892 263423
0.12902856 -0.24457653 0.71158892 263423
0.13031244 -0.24457654 0.71158898 263423
0.13159631 -0.24457654 0.71158898 263423
0.20749499 -0.25257376 0.73485667 8454658
0.20749505 -0.25097018 0.73019111 8454658
0.20749514 -0.24938691 0.72558457 8454658
0.20749521 -0.24782345 0.72103572 8454658
0.20749526 -0.24627942 0.71654344 8454658
0.20749532 -0.24475454 0.71210682 8454658
0.20862843 -0.24457671 0.71158946 16712451
0.2099123 -0.24457671 0.71158946 16712451
0.21119617 -0.24457671 0.71158946 16712451
0.21248005 -0.24457674 0.71158952 16712451
0.21376392 -0.24457674 0.71158952 16712451
0.21504779 -0.24457674 0.71158952 16712451
0.21633165 -0.24457674 0.71158952 16712451
0.21761551 -0.24457674 0.71158952 16712451
0.21889938 -0.24457674 0.71158952 16712451
0.22018325 -0.24457674 0.71158952 16712451
0.22146712 -0.24457674 0.71158952 16712451
0.22275099 -0.24457674 0.71158952 16712451
0.22403486 -0.24457674 0.71158952 16712451
0.22531873 -0.24457674 0.71158952 16712451
0.22660261 -0.24457675 0.71158957 16712451
0.22788648 -0.24457675 0.71158957 16712451
0.22917035 -0.24457675 0.71158957 16712451
0.23045421 -0.24457675 0.71158957 16712451
0.23173808 -0.24457675 0.71158957 16712451
0.0084610889 -0.24667329 0.72147667 66033
0.009727641 -0.24578506 0.71887875 131839
0.010997706 -0.24518415 0.71712118 131839
0.012269994 -0.24475409 0.71586335 197631
0.013542132 -0.24440323 0.71483713 197631
0.014815817 -0.2441389 0.714064 197631
0.016091885 -0.24395297 0.71352023 197631
0.017368527 -0.24380267 0.71308059 197631
0.018650183 -0.24373859 0.71289319 263423
0.019932399 -0.24368964 0.71275002 263423
0.021222236 -0.24373415 0.71288019 197631
0.022513576 -0.24378987 0.71304315 197631
0.023815045 -0.2439433 0.71349192 197631
0.025121346 -0.24412796 0.71403199 197631
0.026439233 -0.24440168 0.7148326 197631
0.027770797 -0.24477051 0.71591139 197631
0.029118709 -0.24524425 0.71729696 131839
0.030497205 -0.24592426 0.71928591 131839
0.031962726 -0.24722192 0.72308129 65992
0.10749502 -0.24994241 0.73103827 65907
0.10749518 -0.24691318 0.72217828 65907
0.10749532 -0.24395645 0.71353036 65907
0.10866306 -0.24368815 0.71274567 263423
0.10994901 -0.24368815 0.71274567 263423
0.11123496 -0.24368815 0.71274567 263423
0.11252092 -0.24368815 0.71274567 263423
0.11380687 -0.24368815 0.71274567 263423
0.11509282 -0.24368815 0.71274567 263423
0.11637878 -0.24368815 0.71274567 263423
0.11766473 -0.24368815 0.71274567 263423
0.11895068 -0.24368815 0.71274567 263423
0.12023665 -0.24368818 0.71274573 263423
0.1215226 -0.24368818 0.71274573 263423
0.12280856 -0.2436882 0.71274579 263423
0.12409452 -0.2436882 0.71274579 263423
0.12538047 -0.2436882 0.71274579 263423
0.12666643 -0.2436882 0.71274579 263423
0.12795238 -0.2436882 0.71274579 263423
0.12923834 -0.2436882 0.71274579 263423
0.13052429 -0.24368821 0.71274585 263423
0.13181025 -0.24368821 0.71274585 263423
0.20749499 -0.25124791 0.73485667 8454658
0.20749505 -0.24965276 0.73019111 8454658
0.20749514 -0.24807778 0.72558457 8454658
0.2074952 -0.24652252 0.72103566 8454658
0.20749524 -0.24498659 0.71654338 8454658
0.20768164 -0.24368836 0.71274626 16712451
0.2089676 -0.24368836 0.71274626 16712451
0.21025355 -0.24368836 0.71274626 16712451
0.21153951 -0.24368836 0.71274626 16712451
0.21282548 -0.24368837 0.71274632 16712451
0.21411143 -0.24368837 0.71274632 16712451
0.21539739 -0.24368837 0.71274632 16712451
0.21668334 -0.24368837 0.71274632 16712451
0.21796928 -0.24368837 0.71274632 16712451
0.21925524 -0.24368837 0.71274632 16712451
0.22054122 -0.2436884 0.71274638 16712451
0.22182718 -0.2436884 0.71274638 16712451
0.22311312 -0.2436884 0.71274638 16712451
0.22439907 -0.2436884 0.71274638 16712451
0.22568503 -0.2436884 0.71274638 16712451
0.22697102 -0.24368842 0.71274644 16712451
0.22825697 -0.24368842 0.71274644 16712451
0.22954293 -0.24368842 0.71274644 16712451
0.23082888 -0.24368842 0.71274644 16712451
0.23211482 -0.24368842 0.71274644 16712451
0.0084745316 -0.24576141 0.72262287 66034
0.0097431885 -0.24487881 0.72002774 131839
0.01101524 -0.24427915 0.71826452 131839
0.012289659 -0.24385272 0.71701068 197631
0.013563931 -0.24350487 0.71598786 197631
0.014839641 -0.24324107 0.71521223 197631
0.016117884 -0.2430577 0.71467304 197631
0.017396573 -0.2429077 0.71423203 197631
0.018680463 -0.24284603 0.71405065 263423
0.019964753 -0.24279715 0.71390694 263423
0.021256907 -0.24284406 0.71404487 197631
0.022550639 -0.24290261 0.71421701 197631
0.023854276 -0.24305573 0.71466726 197631
0.025163148 -0.24324377 0.71522015 197631
0.026483275 -0.24351694 0.71602339 197631
0.027817721 -0.24389024 0.71712101 197631
0.029168954 -0.24437101 0.71853465 131839
0.030551797 -0.24506442 0.72057348 131839
0.032025129 -0.24639742 0.72449297 65986
0.10749502 -0.24862345 0.73103827 65907
0.10749518 -0.24561021 0.72217828 65907
0.10755193 -0.24279688 0.71390617 263423
0.10883999 -0.24279691 0.71390623 263423
0.11012804 -0.24279691 0.71390623 263423
0.11141609 -0.24279691 0.71390623 263423
0.11270414 -0.24279691 0.71390623 263423
0.11399218 -0.24279691 0.71390623 263423
0.11528023 -0.24279691 0.71390623 263423
0.11656827 -0.24279691 0.71390623 263423
0.11785632 -0.24279691 0.71390623 263423
0.11914437 -0.24279691 0.71390623 263423
0.12043243 -0.24279693 0.71390629 263423
0.12172048 -0.24279693 0.71390629 263423
0.12300853 -0.24279694 0.71390635 263423
0.12429658 -0.24279694 0.71390635 263423
0.12558463 -0.24279694 0.71390635 263423
0.12687267 -0.24279694 0.71390635 263423
0.12816072 -0.24279694 0.71390635 263423
0.12944877 -0.24279694 0.71390635 263423
0.13073683 -0.24279697 0.71390641 263423
0.13202487 -0.24279697 0.71390641 263423
0.20749502 -0.24833532 0.73019105 8454658
0.20749512 -0.24676864 0.72558451 8454658
0.2074952 -0.2452216 0.72103566 8454658
0.20749524 -0.24369378 0.71654338 8454658
0.20801982 -0.24279712 0.71390688 16712451
0.20930786 -0.24279712 0.71390688 16712451
0.21059592 -0.24279712 0.71390688 16712451
0.21188396 -0.24279712 0.71390688 16712451
0.21317203 -0.24279715 0.71390694 16712451
0.21446007 -0.24279715 0.71390694 16712451
0.21574813 -0.24279715 0.71390694 16712451
0.21703617 -0.24279715 0.71390694 16712451
0.21832423 -0.24279715 0.71390694 16712451
0.21961227 -0.24279715 0.71390694 16712451
0.22090033 -0.24279715 0.71390694 16712451
0.22218837 -0.24279715 0.71390694 16712451
0.22347642 -0.24279715 0.71390694 16712451
0.22476447 -0.24279715 0.71390694 16712451
0.22605252 -0.24279715 0.71390694 16712451
0.22734058 -0.24279717 0.713907 16712451
0.22862864 -0.24279717 0.713907 16712451
0.22991668 -0.24279717 0.713907 16712451
0.23120473 -0.24279717 0.713907 16712451
0.23249277 -0.24279717 0.713907 16712451
0.0084880153 -0.24484658 0.72377264 66035
0.0097587863 -0.24396965 0.72118038 131839
0.011032831 -0.24337126 0.71941155 131839
0.012309386 -0.24294841 0.71816158 197631
0.0135858 -0.24260357 0.71714222 197631
0.014863541 -0.24234036 0.71636415 197631
0.01614397 -0.24215955 0.71582967 197631
0.017424708 -0.24200985 0.71538717 197631
0.018710844 -0.24195057 0.71521193 263423
0.019997219 -0.24190183 0.71506786 263423
0.021291694 -0.24195106 0.71521342 197631
0.022587825 -0.24201241 0.71539474 197631
0.023893638 -0.24216525 0.71584654 197631
0.025205087 -0.2423566 0.71641219 197631
0.026527466 -0.24262926 0.71721816 197631
0.027864799 -0.24300697 0.71833467 197631
0.029219372 -0.24349476 0.71977663 131839
0.030606581 -0.24420145 0.72186559 131839
0.032087777 -0.24556972 0.72591025 65980
0.10749501 -0.24730447 0.73103821 65907
0.10749517 -0.24430721 0.72217822 65907
0.10772736 -0.24190274 0.71507055 263423
0.10901751 -0.24190275 0.71507061 263423
0.11030766 -0.24190275 0.71507061 263423
0.11159781 -0.24190275 0.71507061 263423
0.11288796 -0.24190275 0.71507061 263423
0.1141781 -0.24190275 0.71507061 263423
0.11546825 -0.24190275 0.71507061 263423
0.1167584 -0.24190275 0.71507061 263423
0.11804855 -0.24190275 0.71507061 263423
0.11933869 -0.24190275 0.71507061 263423
0.12062884 -0.24190275 0.71507061 263423
0.121919 -0.24190278 0.71507066 263423
0.12320917 -0.24190281 0.71507078 263423
0.12449932 -0.24190281 0.71507078 263423
0.12578946 -0.24190281 0.71507078 263423
0.12707962 -0.24190281 0.71507078 263423
0.12836976 -0.24190281 0.71507078 263423
0.12965991 -0.24190281 0.71507078 263423
0.13095006 -0.24190284 0.71507084 263423
0.13224022 -0.24190284 0.71507084 263423
0.20749502 -0.24701789 0.73019105 8454658
0.20749512 -0.24545953 0.72558451 8454658
0.20749518 -0.24392067 0.7210356 8454658
0.20749523 -0.24240096 0.71654332 8454658
0.20835911 -0.24190298 0.71507126 16712451
0.20964925 -0.24190298 0.71507126 16712451
0.21093939 -0.24190298 0.71507126 16712451
0.21222955 -0.24190298 0.71507126 16712451
0.21351971 -0.24190301 0.71507132 16712451
0.21480986 -0.24190301 0.71507132 16712451
0.21610001 -0.24190301 0.71507132 16712451
0.21739016 -0.24190301 0.71507132 16712451
0.21868031 -0.24190301 0.71507132 16712451
0.21997046 -0.24190301 0.71507132 16712451
0.22126062 -0.24190302 0.71507138 16712451
0.22255078 -0.24190302 0.71507138 16712451
0.22384092 -0.24190302 0.71507138 16712451
0.22513108 -0.24190302 0.71507138 16712451
0.22642122 -0.24190302 0.71507138 16712451
0.22771139 -0.24190304 0.71507144 16712451
0.22900155 -0.24190304 0.71507144 16712451
0.23029169 -0.24190304 0.71507144 16712451
0.23158184 -0.24190304 0.71507144 16712451
0.0085015427 -0.24392886 0.72492611 66036
0.0097744334 -0.24305759 0.72233677 131839
0.011050478 -0.24246047 0.72056222 131839
0.012329177 -0.24204122 0.71931624 197631
0.013607741 -0.2416994 0.7183004 197631
0.01488752 -0.24143673 0.71751982 197631
0.016170138 -0.24125846 0.71698999 197631
0.017452938 -0.2411091 0.71654612 197631
0.018741321 -0.24105217 0.7163769 263423
0.020029988 -0.24100599 0.71623969 263423
0.021326596 -0.24105515 0.71638578 197631
0.022625135 -0.2411193 0.7165764 197631
0.023933128 -0.24127179 0.71702963 197631
0.025247168 -0.24146651 0.71760827 197631
0.026571805 -0.2417386 0.71841693 197631
0.027912037 -0.2421207 0.71955246 197631
0.029269967 -0.24261551 0.72102296 131839
0.030661566 -0.24333541 0.72316241 131839
0.032150667 -0.24473876 0.72733301 65974
0.107495 -0.24598549 0.73103815 65907
0.10749517 -0.24300423 0.72217822 65907
0.10790335 -0.24100567 0.71623874 263423
0.1091956 -0.24100569 0.7162388 263423
0.11048786 -0.24100569 0.7162388 263423
0.11178012 -0.24100569 0.7162388 263423
0.11307237 -0.24100569 0.7162388 263423
0.11436463 -0.24100569 0.7162388 263423
0.11565689 -0.24100569 0.7162388 263423
0.11694914 -0.24100569 0.7162388 263423
0.1182414 -0.24100569 0.7162388 263423
0.11953366 -0.24100569 0.7162388 263423
0.12082591 -0.24100569 0.7162388 263423
0.12211818 -0.24100572 0.71623886 263423
0.12341044 -0.24100573 0.71623892 263423
0.1247027 -0.24100573 0.71623892 197631
0.12599495 -0.24100573 0.71623892 197631
0.12728721 -0.24100573 0.71623892 197631
0.12857947 -0.24100573 0.71623892 197631
