# .PCD v0.7 - Point Cloud Data file format
VERSION 0.7
FIELDS x y z rgb
SIZE 4 4 4 4
TYPE F F F U
COUNT 1 1 1 1
WIDTH 452
HEIGHT 1
VIEWPOINT 0 0 0 1 0 0 0
POINTS 452
DATA ascii
0.10805976 -0.063242346 0.55200577 66002
0.10817484 -0.062312692 0.55259365 66013
0.10875501 -0.06207478 0.55048382 131839
0.10890092 -0.06116353 0.55122232 131839
0.10954881 -0.060970608 0.54948366 131839
0.11027483 -0.06082423 0.54816449 131839
0.1090472 -0.06024982 0.55196273 131839
0.10970837 -0.060066573 0.55028397 131839
0.11044256 -0.059926234 0.5489983 131839
0.1111748 -0.059787333 0.5477258 197631
0.11197076 -0.059684854 0.54678696 197631
0.10854103 -0.059522498 0.55446428 131836
0.10919388 -0.059333663 0.55270523 131839
0.10987589 -0.059163939 0.55112422 131839
0.11061081 -0.0590255 0.54983461 131839
0.11135961 -0.058896858 0.54863632 197631
0.11215658 -0.058795743 0.54769439 197631
0.11295082 -0.05869497 0.54675567 197631
0.11379343 -0.058620863 0.54606533 197631
0.11464147 -0.05855079 0.5454126 197631
0.12801786 -0.058819015 0.54791117 131839
0.1086877 -0.058601201 0.55521351 131839
0.10934096 -0.058415033 0.55344969 131839
0.11004391 -0.058258545 0.55196702 131839
0.11077957 -0.058122013 0.55067348 197631
0.11154504 -0.058003422 0.54954988 197631
0.11234301 -0.05790367 0.54860479 197631
0.11314461 -0.057807509 0.54769373 197631
0.11399593 -0.0577382 0.54703707 197631
0.11484522 -0.057669062 0.54638201 197631
0.11572349 -0.057615522 0.54587477 197631
0.11662409 -0.057573922 0.54548061 197631
0.11752339 -0.057532366 0.54508692 197631
0.11847522 -0.057517018 0.54494148 197631
0.12142184 -0.05751561 0.54492813 197631
0.12243764 -0.05753094 0.54507339 197631
0.12352936 -0.057581414 0.5455516 197631
0.12462299 -0.057631973 0.54603064 197631
0.12580611 -0.057722807 0.54689121 197631
0.12701665 -0.057824701 0.54785663 131839
0.10883475 -0.057677403 0.55596471 131839
0.10948843 -0.057493925 0.55419612 131839
0.11021247 -0.057350378 0.55281246 131839
0.11094884 -0.057215769 0.55151492 197631
0.11173109 -0.057107002 0.55046648 197631
0.11253008 -0.057008632 0.54951829 197631
0.11334655 -0.056920756 0.54867125 197631
0.11419914 -0.056852385 0.5480122 197631
0.1150497 -0.056784187 0.54735482 197631
0.11594263 -0.056737885 0.5469085 197631
0.11684479 -0.05669684 0.54651284 197631
0.11775723 -0.056661431 0.54617155 197631
0.11871308 -0.056647319 0.54603553 197631
0.11966845 -0.056633215 0.54589957 197631
0.12066407 -0.056638237 0.54594797 197631
0.12168141 -0.056653287 0.54609305 197631
0.12271878 -0.056677349 0.54632497 197631
0.12381325 -0.056727186 0.54680538 197631
0.12492165 -0.056782566 0.5473392 197631
0.12612286 -0.056878939 0.54826814 197631
0.12737942 -0.05699857 0.54942131 131839
0.10834959 -0.056946527 0.55863506 131822
0.10898221 -0.056751106 0.55671799 131839
0.10964096 -0.056572732 0.55496818 131839
0.11038154 -0.05643943 0.55366051 131839
0.11111863 -0.05630675 0.55235893 197631
0.11191776 -0.056207586 0.55138618 197631
0.11271776 -0.056110602 0.55043477 197631
0.1135492 -0.056030829 0.54965222 197631
0.11440308 -0.055963412 0.54899085 197631
0.1152576 -0.055897463 0.5483439 197631
0.1161626 -0.05585691 0.5479461 197631
0.11706631 -0.055816427 0.54754895 197631
0.11799418 -0.055788044 0.54727054 197631
0.11895189 -0.055774122 0.54713398 197631
0.11990914 -0.055760216 0.54699755 197631
0.1209225 -0.055772416 0.54711723 197631
0.12194209 -0.055787273 0.54726297 197631
0.12300123 -0.055819836 0.54758239 197631
0.12409846 -0.055869024 0.54806495 197631
0.12523641 -0.055935632 0.54871833 197631
0.1264412 -0.056030806 0.54965198 197631
0.12774426 -0.056167711 0.55099499 131839
0.10847135 -0.056001484 0.55926281 131832
0.10913008 -0.055822302 0.55747336 131839
0.10980981 -0.055657025 0.55582285 131839
0.11055113 -0.055525679 0.55451113 131839
0.11130127 -0.055401079 0.55326682 197631
0.11210506 -0.055305161 0.55230892 197631
0.11290607 -0.055209577 0.55135435 197631
0.1137526 -0.05513772 0.55063677 197631
0.11460775 -0.055071257 0.54997301 197631
0.11547685 -0.05501258 0.54938704 197631
0.11638341 -0.054972593 0.54898769 197631
0.11728867 -0.054932669 0.54858899 197631
0.11823209 -0.05491114 0.548374 197631
0.11919168 -0.054897413 0.54823691 197631
0.12016074 -0.054888237 0.54814529 197631
0.12118203 -0.054902878 0.5482915 197631
0.12220389 -0.054917537 0.54843789 197631
0.12328496 -0.054958355 0.54884553 197631
0.12438498 -0.055006903 0.54933035 197631
0.12555279 -0.055084422 0.5501045 197631
0.12676112 -0.055178374 0.55104274 131839
0.10861919 -0.055067405 0.5600251 131839
0.10927831 -0.054890949 0.55823058 131839
0.10997918 -0.054738495 0.55668014 131839
0.11072123 -0.054609116 0.55536437 131839
0.11148817 -0.054494217 0.55419588 197631
0.11229299 -0.054399714 0.55323482 197631
0.11309819 -0.054307058 0.55229253 197631
0.1139567 -0.0542414 0.55162477 197631
0.11481316 -0.054175902 0.55095869 197631
0.11569693 -0.054124314 0.55043405 197631
0.11660506 -0.054084901 0.55003321 197631
0.11751188 -0.054045551 0.54963303 197631
0.11847097 -0.054030694 0.54948193 197631
0.11943243 -0.054017153 0.54934424 197631
0.12041912 -0.054015163 0.54932398 197631
0.12144268 -0.054029603 0.54947084 197631
0.12246913 -0.054045081 0.54962826 197631
0.12357001 -0.054092895 0.55011451 197631
0.12467283 -0.054140791 0.5506016 197631
0.12587075 -0.054228898 0.55149764 197631
0.12710145 -0.054329641 0.55252218 131839
0.10817497 -0.054341421 0.56297171 66013
0.10876743 -0.05413077 0.56078941 131839
0.10942698 -0.053957082 0.55899 131839
0.11014906 -0.053817123 0.55754006 131839
0.11089185 -0.053689722 0.55622017 197631
0.1116757 -0.053584307 0.5551281 197631
0.11248154 -0.053491224 0.55416375 197631
0.11330175 -0.053406548 0.55328655 197631
0.11416156 -0.053341866 0.55261642 197631
0.11501929 -0.053277332 0.55194789 197631
0.11591786 -0.053232666 0.55148512 197631
0.11682757 -0.05319383 0.55108279 197631
0.11774698 -0.053160027 0.55073261 197631
0.11871079 -0.053146675 0.55059427 197631
0.11967415 -0.053133339 0.55045611 197631
0.12067863 -0.053138327 0.55050778 197631
0.12170447 -0.053152565 0.55065531 197631
0.12275271 -0.053176276 0.55090094 197631
0.12385638 -0.053223424 0.5513894 197631
0.12497887 -0.053277846 0.5519532 197631
0.12619033 -0.053369038 0.55289793 197631
0.12746756 -0.053486388 0.55411369 131839
0.10891608 -0.053191576 0.5615558 131839
0.10957606 -0.053020675 0.55975157 131839
0.11031948 -0.052892901 0.55840266 131839
0.11106302 -0.052767497 0.55707872 197631
0.11186387 -0.052671332 0.55606347 197631
0.11267072 -0.052579671 0.55509579 197631
0.11350602 -0.052502785 0.5542841 197631
0.11436714 -0.052439082 0.55361158 197631
0.11522702 -0.052375916 0.55294472 197631
0.11613964 -0.052337606 0.55254024 197631
0.11705089 -0.052299336 0.55213624 197631
0.11798589 -0.05227223 0.55185008 197631
0.11895161 -0.052259076 0.5517112 197631
0.11991686 -0.052245934 0.55157244 197631
0.12093925 -0.052257705 0.55169672 197631
0.12196739 -0.052271739 0.55184489 197631
0.12303759 -0.05230343 0.55217946 197631
0.12414408 -0.052349914 0.55267018 197631
0.12529646 -0.052414849 0.55335575 197631
0.12651153 -0.052504785 0.5543052 131839
0.12783578 -0.052638263 0.55571437 131839
0.10906515 -0.052249812 0.56232435 131839
0.10974257 -0.052089795 0.56060219 131839
0.11049042 -0.051965814 0.55926788 131839
0.11124194 -0.051845793 0.55797619 197631
0.11205267 -0.051755268 0.55700195 197631
0.11286055 -0.051665056 0.55603105 197631
0.11371105 -0.051595766 0.55528533 197631
0.11457346 -0.05153304 0.55461025 197631
0.11544806 -0.05147684 0.55400544 197631
0.11636227 -0.051439114 0.55359942 197631
0.11727511 -0.051401433 0.55319387 197631
0.11822578 -0.051380824 0.55297208 197631
0.1191934 -0.051367868 0.55283266 197631
0.12017113 -0.051359445 0.552742 197631
0.121201 -0.051373262 0.55289072 197631
0.12223145 -0.051387098 0.55303961 197631
0.12332381 -0.051426526 0.55346394 197631
0.12443312 -0.051472332 0.55395693 197631
0.12561566 -0.05154746 0.55476546 197631
0.12683438 -0.05163613 0.55571973 131839
0.12820612 -0.051785216 0.55732423 131839
0.10854949 -0.051471822 0.56492078 131836
0.10921459 -0.051305458 0.56309485 131839
0.1099133 -0.051157806 0.56147432 131839
0.11066189 -0.051035848 0.56013578 131839
0.11143034 -0.050925177 0.55892116 197631
0.1122421 -0.050836109 0.55794358 197631
0.11305098 -0.050747331 0.55696923 197631
0.11391682 -0.050685458 0.55629015 197631
0.11478054 -0.05062373 0.55561268 197631
0.11566994 -0.050574299 0.55507016 197631
0.11658574 -0.050537165 0.55466259 197631
0.11750018 -0.050500076 0.55425555 197631
0.11846664 -0.050485782 0.55409867 197631
0.11943619 -0.050473034 0.55395871 197631
0.12043171 -0.05047138 0.55394059 197631
0.12146389 -0.050484993 0.55408996 197631
0.12250116 -0.050500479 0.55425996 197631
0.12361135 -0.050545532 0.55475444 197631
0.1247235 -0.050590657 0.55524969 197631
0.12593648 -0.050675634 0.55618232 197631
0.1271877 -0.050774533 0.55726779 131839
0.10869894 -0.050522041 0.56569856 131839
0.10936447 -0.050358523 0.56386763 131839
0.11008456 -0.050222907 0.56234914 131839
0.11083389 -0.05010299 0.56100643 197631
0.11161938 -0.050001439 0.55986935 197631
0.11243217 -0.049913835 0.55888844 197631
0.11325618 -0.04983272 0.55798018 197631
0.11412333 -0.049771849 0.5572986 197631
0.11498836 -0.049711127 0.55661869 197631
0.11589268 -0.04966829 0.55613905 197631
0.11681007 -0.049631748 0.55572987 197631
0.11773655 -0.049599651 0.55537051 197631
0.11870849 -0.04958709 0.55522984 197631
0.11967994 -0.049574539 0.55508929 197631
0.12069344 -0.04957946 0.55514443 197631
0.12172793 -0.04959286 0.55529445 197631
0.1227872 -0.049616054 0.55555415 197631
0.12390023 -0.049660418 0.5560509 197631
0.12503707 -0.049713537 0.55664569 197631
0.12625892 -0.049799338 0.5576064 197631
0.1275572 -0.049913686 0.55888677 131839
0.10823432 -0.049757011 0.56861973 66019
0.1088488 -0.049569644 0.56647849 131839
0.10951476 -0.049408983 0.56464249 131839
0.11025634 -0.049285095 0.5632267 131839
0.11100644 -0.049167234 0.56187981 197631
0.11180905 -0.049074564 0.56082076 197631
0.1126229 -0.048988435 0.55983651 197631
0.11346212 -0.048914779 0.55899477 197631
0.1143306 -0.048854925 0.55831075 197631
0.11519694 -0.048795212 0.55762833 197631
0.11611628 -0.048758782 0.55721205 197631
0.11703525 -0.048722833 0.5568012 197631
0.11797746 -0.048697077 0.55650687 197631
0.11895133 -0.04868472 0.55636567 197631
0.11992471 -0.048672371 0.55622452 197631
0.12095629 -0.048683651 0.55635345 197631
0.12199312 -0.048696842 0.55650419 197631
0.12307458 -0.048727483 0.55685437 197631
0.12419046 -0.048771154 0.55735344 197631
0.12535751 -0.048834052 0.55807221 197631
0.12658307 -0.048918556 0.55903792 131839
0.12792887 -0.049047828 0.56051522 131839
0.10899905 -0.048614603 0.56726044 131839
0.10967419 -0.048460688 0.5654645 131839
0.11042865 -0.04834434 0.56410688 131839
0.1111816 -0.048229463 0.56276643 197631
0.11199938 -0.048144527 0.56177539 197631
0.11281427 -0.048059892 0.5607878 197631
0.11366881 -0.0479935 0.56001312 197631
0.11453861 -0.047934659 0.55932653 197631
0.11541876 -0.047881145 0.55870211 197631
0.11634075 -0.047845762 0.55828923 197631
0.11726134 -0.047810413 0.55787677 197631
0.11821935 -0.047790799 0.55764788 197631
0.11919516 -0.047778651 0.55750614 197631
0.12018172 -0.047770981 0.55741662 197631
0.1212203 -0.047783934 0.55756778 197631
0.12225946 -0.047796909 0.55771917 197631
0.12336332 -0.047834754 0.55816078 197631
0.12448207 -0.047877718 0.55866212 197631
0.1256796 -0.047950044 0.55950606 197631
0.12690885 -0.048033234 0.56047672 131839
0.10847857 -0.047812831 0.5699029 131832
0.10914975 -0.047656935 0.56804472 131839
0.10984628 -0.047514901 0.56635177 131839
0.11060151 -0.04740065 0.56498992 131839
0.11137152 -0.047294755 0.56372774 197631
0.11219035 -0.047211323 0.56273329 197631
0.11300629 -0.047128186 0.56174231 197631
0.11387625 -0.047068853 0.5610351 197631
0.11474738 -0.04701104 0.56034601 197631
0.11564247 -0.046963975 0.55978501 197631
0.11656606 -0.046929196 0.55937046 197631
0.11748829 -0.046894465 0.5589565 197631
0.11846223 -0.0468808 0.5587936 197631
0.11943999 -0.046868857 0.55865127 197631
0.12044454 -0.046867542 0.55863559 197631
0.12148546 -0.046880282 0.55878747 197631
0.12253372 -0.046895619 0.55897027 197631
0.12365338 -0.046937816 0.55947322 197631
0.12477505 -0.046980079 0.55997699 197631
0.12600334 -0.047061484 0.5609473 197631
0.12727545 -0.047157839 0.56209576 131839
0.10862925 -0.046849582 0.57069451 131839
0.10930085 -0.046696607 0.56883109 131839
0.11001892 -0.046566144 0.56724185 131839
0.11077491 -0.046453994 0.56587571 131839
0.11156209 -0.046356849 0.56469232 197631
0.11238198 -0.046274934 0.56369448 197631
0.11320982 -0.046197731 0.56275403 197631
0.11408445 -0.046140824 0.56206083 197631
0.11495692 -0.04608405 0.56136924 197631
0.11586706 -0.04604324 0.56087214 197631
0.11679226 -0.046009071 0.56045592 197631
0.11772594 -0.045978799 0.56008714 197631
0.11870613 -0.045967057 0.55994409 197631
0.11968584 -0.045955323 0.55980116 197631
0.1207085 -0.045960143 0.55985987 197631
0.12175179 -0.045972668 0.56001246 197631
0.12282225 -0.045995165 0.56028652 197631
0.12394483 -0.046036649 0.56079185 197631
0.12509629 -0.046088107 0.56141865 197631
0.12632875 -0.046168339 0.56239599 197631
0.10817511 -0.046065003 0.57374704 66013
0.10878034 -0.045883648 0.57148826 131839
0.10945239 -0.045733627 0.56961972 131839
0.11019211 -0.045614406 0.56813478 131839
0.11094887 -0.045504376 0.56676435 197631
0.1117533 -0.045415726 0.56566018 197631
0.11257426 -0.045335338 0.56465894 197631
0.11341744 -0.045265257 0.56378609 197631
0.11429342 -0.045209397 0.56309032 197631
0.11516722 -0.045153666 0.56239623 197631
0.11609251 -0.045118924 0.5619635 197631
0.11701936 -0.045085378 0.56154567 197631
0.11796886 -0.045061067 0.56124288 197631
0.11895103 -0.045049541 0.56109929 197631
0.1199327 -0.045038015 0.56095576 197631
0.12097363 -0.045048758 0.56108958 197631
0.12201927 -0.045061059 0.56124276 197631
0.12311218 -0.04509047 0.56160909 197631
0.12423766 -0.045131233 0.5621168 197631
0.12541963 -0.04519169 0.56286979 197631
0.12665585 -0.045270566 0.56385219 131839
0.10893182 -0.044915017 0.5722841 131839
0.10960461 -0.04476808 0.57041192 131839
0.11036582 -0.044659659 0.56903046 131839
0.11112337 -0.044551764 0.56765574 197631
0.11194517 -0.044471368 0.56663138 197631
0.1127672 -0.044392515 0.56562668 197631
0.11362583 -0.04432936 0.56482196 197631
0.11450315 -0.04427455 0.56412363 197631
0.11538897 -0.044223968 0.56347913 197631
0.11631884 -0.044191003 0.56305909 197631
0.11724733 -0.044158082 0.56263965 197631
0.1182128 -0.044139545 0.56240344 197631
0.11919694 -0.044128228 0.56225926 197631
0.12019247 -0.044121288 0.5621708 197631
0.12123992 -0.044133361 0.56232464 197631
0.12228795 -0.044145443 0.5624786 197631
0.12340347 -0.044181488 0.56293786 197631
0.12453187 -0.04422152 0.56344795 197631
0.12574466 -0.044290625 0.56432843 197631
0.12699045 -0.044370156 0.56534177 131839
0.10908376 -0.043943696 0.57308233 131839
0.1097781 -0.043808162 0.57131481 131839
0.1105401 -0.043701898 0.569929 131839
0.11131167 -0.043601345 0.56861764 197631
0.11213771 -0.043523766 0.56760591 197631
0.1129608 -0.043446463 0.56659776 197631
0.11383497 -0.04339001 0.56586158 197631
0.11471365 -0.043336269 0.56516069 197631
0.11561455 -0.043291792 0.56458068 197631
0.11654606 -0.043259457 0.56415898 197631
0.1174762 -0.04322717 0.56373793 197631
0.11845776 -0.043214206 0.56356883 197631
0.11944387 -0.043203101 0.56342405 197631
0.12045756 -0.04320208 0.5634107 197631
0.12150739 -0.043213926 0.56356519 197631
0.12256683 -0.043228965 0.56376135 197631
0.12369615 -0.0432682 0.564273 197631
0.1248319 -0.043309025 0.56480545 197631
0.12607133 -0.043384872 0.56579459 197631
0.12736474 -0.043477923 0.56700808 131839
0.10923612 -0.042969659 0.57388276 131839
0.10995215 -0.042845204 0.57222062 131839
0.11071493 -0.042741112 0.5708304 131839
0.11150378 -0.042648911 0.56959903 197631
0.11233089 -0.042572897 0.56858379 197631
0.11316268 -0.042500012 0.56761038 197631
0.1140449 -0.042447206 0.56690514 197631
0.11492493 -0.04239453 0.56620163 197631
0.11584099 -0.042355958 0.56568646 197631
0.11677417 -0.042324264 0.56526315 197631
0.11771514 -0.042295914 0.56488454 197631
0.11870375 -0.042285025 0.56473911 197631
0.11969183 -0.042274136 0.56459367 197631
0.12072381 -0.042278804 0.56465602 197631
0.12177605 -0.042290431 0.56481129 197631
0.12285795 -0.042312074 0.56510037 197631
0.1239902 -0.04235056 0.5656144 197631
0.12515652 -0.042399962 0.56627417 197631
0.12639974 -0.042474408 0.56726843 131839
0.12774123 -0.042580411 0.56868416 131839
0.11012673 -0.041879181 0.57312918 131839
0.11089031 -0.041777279 0.57173467 197631
0.11169656 -0.041693188 0.57058382 197631
0.11252476 -0.041618746 0.56956506 197631
0.11337201 -0.041552637 0.56866032 197631
0.11425559 -0.041500911 0.56795245 197631
0.11513698 -0.041449312 0.56724632 197631
0.11606834 -0.041416455 0.56679666 197631
0.11700317 -0.041385401 0.56637168 197631
0.11796013 -0.041362643 0.56606025 197631
0.11895072 -0.04135197 0.56591415 197631
0.1199408 -0.041341297 0.56576812 197631
0.12099126 -0.041351441 0.56590694 197631
0.12204589 -0.041362833 0.56606281 197631
0.12315045 -0.041390814 0.56644577 197631
0.12428566 -0.041428555 0.56696224 197631
0.12548283 -0.041486159 0.56775057 197631
0.12672988 -0.04155919 0.56875002 131839
0.11189001 -0.04073415 0.57157201 197631
0.11271929 -0.040661298 0.57054973 197631
0.11358211 -0.040601749 0.56971419 197631
0.11446708 -0.040551115 0.5690037 197631
0.11535868 -0.040503714 0.56833857 197631
0.11629656 -0.040473253 0.56791115 197631
0.11723308 -0.04044285 0.56748456 197631
0.11820616 -0.040425483 0.56724083 197631
0.11919875 -0.040415026 0.56709415 197631
0.12020342 -0.040408809 0.56700689 197631
0.12125988 -0.040419959 0.56716335 197631
0.12231693 -0.04043112 0.56731993 197631
0.12344435 -0.040465161 0.5677976 197631
0.12458254 -0.040502142 0.56831652 197631
0.12581083 -0.040567573 0.56923461 197631
0.12707774 -0.040644296 0.57031119 131839
0.1129145 -0.03970053 0.57153779 197631
0.113793 -0.039647337 0.57077199 197631
0.11467934 -0.039597798 0.57005882 197631
0.11558614 -0.039556146 0.5694592 197631
0.1165257 -0.03952634 0.56903011 197631
0.11746388 -0.039496586 0.56860179 197631
0.11845322 -0.039484408 0.56842643 197631
0.11944782 -0.039474171 0.56827909 197631
0.12047081 -0.039473414 0.56826818 197631
0.1215297 -0.039484333 0.56842536 197631
0.12260054 -0.039498918 0.56863534 197631
0.12373964 -0.039535072 0.56915581 197631
0.12489019 -0.039574258 0.56971997 197631
0.12614055 -0.039644171 0.57072645 197631
0.11581449 -0.038604833 0.57058424 197631
0.11675575 -0.038575687 0.57015347 197631
0.11770416 -0.038549397 0.56976491 197631
0.1187013 -0.038539384 0.56961691 197631
0.11969792 -0.038529374 0.56946898 197631
0.1207394 -0.038533852 0.56953514 197631
0.12180073 -0.038544532 0.56969303 197631
0.12289426 -0.038565144 0.56999767 197631
0.12403635 -0.038600523 0.57052058 197631
